ply
format ascii 1.0
element vertex 1194
property float x
property float y
property float z
property uchar red
property uchar green
property uchar blue
end_header
-0.359563 0.060184 -0.360002 255 255 255
-0.359563 0.080026 -0.340161 255 255 255
-0.359563 0.059359 0.439998 222 222 222
-0.359563 0.059757 0.479998 102 102 102
-0.378409 0.080026 0.519998 89 89 89
-0.359563 0.080026 0.501153 89 89 89
-0.369747 0.080026 0.759998 90 90 90
-0.359563 0.066264 0.759998 90 90 90
-0.359563 0.080026 0.771501 90 90 90
-0.380294 0.120026 -0.640002 255 255 255
-0.359563 0.085450 -0.640002 246 246 246
-0.359563 0.120026 -0.622779 231 231 231
-0.380603 0.120026 -0.400002 255 255 255
-0.359563 0.099867 -0.400002 255 255 255
-0.359563 0.120026 -0.420555 255 255 255
-0.359563 0.099867 -0.360002 255 255 255
-0.359563 0.098871 0.519998 89 89 89
-0.377604 0.120026 0.559998 75 75 75
-0.359563 0.120026 0.541957 75 75 75
-0.381103 0.120026 0.759998 100 100 100
-0.363783 0.120026 0.799998 75 75 75
-0.359563 0.113977 0.799998 75 75 75
-0.359563 0.120026 0.804874 75 75 75
-0.371131 0.160026 -0.680002 253 253 253
-0.359563 0.142263 -0.680002 253 253 253
-0.359563 0.160026 -0.693583 253 253 253
-0.359563 0.142263 -0.640002 253 253 253
-0.378449 0.160026 -0.440002 255 255 255
-0.359563 0.160026 -0.421116 255 255 255
-0.380197 0.160026 0.519998 111 111 111
-0.359563 0.160026 0.540135 102 102 102
-0.378512 0.160026 0.799998 89 89 89
-0.363559 0.160026 0.839998 89 89 89
-0.359563 0.155332 0.839998 89 89 89
-0.359563 0.160026 0.844502 89 89 89
-0.359563 0.189256 -0.680002 241 241 241
-0.384551 0.200026 -0.640002 229 229 229
-0.359563 0.200026 -0.674008 241 241 241
-0.382607 0.200026 -0.480002 255 255 255
-0.359563 0.178912 -0.480002 255 255 255
-0.359563 0.200026 -0.502236 255 255 255
-0.380169 0.200026 -0.440002 255 255 255
-0.359563 0.178912 -0.440002 255 255 255
-0.380790 0.200026 0.559998 108 108 108
-0.359563 0.179888 0.559998 102 102 102
-0.359563 0.200026 0.580751 103 103 103
-0.375432 0.200026 0.799998 117 117 117
-0.359563 0.169810 0.799998 89 89 89
-0.359563 0.200026 0.785904 117 117 117
-0.359563 0.169810 0.839998 89 89 89
-0.385102 0.240026 -0.680002 253 253 253
-0.359563 0.240026 -0.658344 253 253 253
-0.359563 0.220766 -0.480002 255 255 255
-0.380808 0.240026 -0.440002 255 255 255
-0.359563 0.240026 -0.460742 255 255 255
-0.380174 0.240026 0.559998 72 72 72
-0.381351 0.240026 0.599998 100 100 100
-0.359563 0.219273 0.599998 103 103 103
-0.359563 0.240026 0.621036 110 110 110
-0.359563 0.223529 0.799998 123 123 123
-0.395255 0.240026 0.839998 112 112 112
-0.359563 0.240026 0.809836 123 123 123
-0.363695 0.280026 -0.720002 238 238 238
-0.359563 0.273283 -0.720002 238 238 238
-0.359563 0.280026 -0.724688 238 238 238
-0.371540 0.280026 -0.680002 238 238 238
-0.359563 0.273283 -0.680002 238 238 238
-0.379664 0.280026 -0.440002 255 255 255
-0.359563 0.280026 -0.461563 255 255 255
-0.379664 0.280026 -0.400002 255 255 255
-0.379017 0.280026 0.559998 92 92 92
-0.359563 0.260572 0.559998 92 92 92
-0.359563 0.280026 0.540545 92 92 92
-0.359563 0.260572 0.599998 92 92 92
-0.382493 0.280026 0.799998 118 118 118
-0.359563 0.280026 0.826240 128 128 128
-0.359563 0.287162 -0.720002 238 238 238
-0.376345 0.320026 -0.680002 250 250 250
-0.359563 0.320026 -0.699689 250 250 250
-0.379067 0.320026 -0.440002 255 255 255
-0.359563 0.300522 -0.440002 255 255 255
-0.359563 0.320026 -0.420498 255 255 255
-0.380391 0.320026 0.519998 75 75 75
-0.380391 0.320026 0.559998 75 75 75
-0.359563 0.299479 0.559998 92 92 92
-0.359563 0.320026 0.581404 123 123 123
-0.392015 0.320026 0.799998 115 115 115
-0.365799 0.320026 0.839998 132 132 132
-0.359563 0.306070 0.839998 132 132 132
-0.359563 0.320026 0.847116 132 132 132
-0.370375 0.360026 -0.680002 217 217 217
-0.359563 0.360026 -0.683668 217 217 217
-0.390146 0.360026 -0.640002 218 218 218
-0.382041 0.360026 -0.480002 250 250 250
-0.359563 0.339530 -0.480002 255 255 255
-0.359563 0.360026 -0.501644 245 245 245
-0.379649 0.360026 -0.440002 255 255 255
-0.359563 0.339530 -0.440002 255 255 255
-0.380137 0.360026 0.399998 10 10 10
-0.359563 0.340294 0.439998 10 10 10
-0.359563 0.360026 0.420266 10 10 10
-0.359563 0.340770 0.479998 10 10 10
-0.359563 0.340770 0.519998 10 10 10
-0.359563 0.340770 0.559998 10 10 10
-0.393836 0.360026 0.799998 97 97 97
-0.359563 0.327800 0.799998 132 132 132
-0.359563 0.360026 0.772880 112 112 112
-0.359563 0.327800 0.839998 132 132 132
-0.385760 0.400026 -0.680002 228 228 228
-0.359563 0.365311 -0.680002 217 217 217
-0.359563 0.400026 -0.657623 226 226 226
-0.359563 0.380469 -0.480002 239 239 239
-0.380670 0.400026 -0.440002 242 242 242
-0.359563 0.400026 -0.460445 239 239 239
-0.378406 0.400026 0.359998 16 16 16
-0.359563 0.381183 0.359998 16 16 16
-0.359563 0.400026 0.341155 16 16 16
-0.359563 0.381183 0.399998 16 16 16
-0.374939 0.400026 0.759998 117 117 117
-0.359563 0.400026 0.775758 117 117 117
-0.366525 0.440026 -0.640002 214 214 214
-0.359563 0.431743 -0.640002 214 214 214
-0.359563 0.440026 -0.634164 214 214 214
-0.379918 0.440026 -0.440002 236 236 236
-0.359563 0.440026 -0.462175 221 221 221
-0.379918 0.440026 -0.400002 236 236 236
-0.389586 0.440026 0.279998 24 24 24
-0.381833 0.440026 0.319998 41 41 41
-0.359563 0.440026 0.341723 55 55 55
-0.363315 0.440026 0.719998 142 142 142
-0.359563 0.432905 0.719998 142 142 142
-0.359563 0.440026 0.716653 142 142 142
-0.359563 0.432905 0.759998 142 142 142
-0.370523 0.480026 -0.680002 195 195 195
-0.359563 0.451357 -0.680002 214 214 214
-0.359563 0.480026 -0.692307 195 195 195
-0.398862 0.480026 -0.640002 198 198 198
-0.359563 0.451357 -0.640002 214 214 214
-0.378342 0.480026 -0.440002 203 203 203
-0.359563 0.461247 -0.440002 203 203 203
-0.359563 0.480026 -0.421223 203 203 203
-0.379569 0.480026 0.199998 122 122 122
-0.379569 0.480026 0.239998 122 122 122
-0.359563 0.462049 0.279998 80 80 80
-0.359563 0.480026 0.262021 80 80 80
-0.359563 0.462049 0.319998 80 80 80
-0.359563 0.445697 0.719998 142 142 142
-0.379658 0.480026 0.759998 101 101 101
-0.359563 0.480026 0.739904 110 110 110
-0.359563 0.495529 -0.680002 195 195 195
-0.377422 0.520026 -0.640002 190 190 190
-0.359563 0.520026 -0.660466 187 187 187
-0.379081 0.520026 -0.400002 189 189 189
-0.359563 0.500508 -0.400002 189 189 189
-0.359563 0.520026 -0.380484 189 189 189
-0.382080 0.520026 0.239998 103 103 103
-0.359563 0.520026 0.261748 111 111 111
-0.359563 0.507034 0.759998 102 102 102
-0.391729 0.520026 0.799998 108 108 108
-0.359563 0.520026 0.769486 102 102 102
-0.359563 0.548305 -0.640002 174 174 174
-0.385391 0.560026 -0.600002 180 180 180
-0.359563 0.560026 -0.630590 174 174 174
-0.379376 0.560026 -0.360002 150 150 150
-0.359563 0.540213 -0.360002 150 150 150
-0.359563 0.560026 -0.340189 150 150 150
-0.377803 0.560026 0.199998 120 120 120
-0.359563 0.541786 0.199998 120 120 120
-0.359563 0.560026 0.181759 120 120 120
-0.359563 0.541786 0.239998 120 120 120
-0.383180 0.560026 0.439998 10 10 10
-0.359563 0.535531 0.479998 10 10 10
-0.359563 0.560026 0.469093 10 10 10
-0.360037 0.560026 0.519998 11 11 11
-0.359563 0.560026 0.519130 11 11 11
-0.389728 0.560026 0.759998 110 110 110
-0.359563 0.560026 0.793638 106 106 106
-0.367060 0.600026 -0.600002 153 153 153
-0.359563 0.600026 -0.602503 153 153 153
-0.390652 0.600026 -0.560002 163 163 163
-0.379421 0.600026 -0.320002 116 116 116
-0.359563 0.580168 -0.320002 116 116 116
-0.359563 0.600026 -0.300144 116 116 116
-0.381153 0.600026 0.159998 97 97 97
-0.359563 0.600026 0.181397 117 117 117
-0.377850 0.600026 0.399998 40 40 40
-0.359563 0.585647 0.399998 40 40 40
-0.359563 0.600026 0.385489 40 40 40
-0.359563 0.585647 0.439998 40 40 40
-0.359563 0.560377 0.519998 11 11 11
-0.386170 0.600026 0.559998 31 31 31
-0.359563 0.600026 0.532666 27 27 27
-0.374068 0.600026 0.799998 103 103 103
-0.359563 0.569490 0.799998 106 106 106
-0.359563 0.600026 0.817217 103 103 103
-0.397187 0.640026 -0.600002 136 136 136
-0.359563 0.602969 -0.600002 153 153 153
-0.359563 0.640026 -0.572009 144 144 144
-0.379279 0.640026 -0.280002 78 78 78
-0.359563 0.620309 -0.280002 78 78 78
-0.359563 0.640026 -0.260286 78 78 78
-0.378320 0.640026 0.119998 112 112 112
-0.359563 0.621269 0.119998 112 112 112
-0.359563 0.640026 0.101242 112 112 112
-0.359563 0.621269 0.159998 112 112 112
-0.383803 0.640026 0.359998 87 87 87
-0.359563 0.640026 0.387001 96 96 96
-0.359563 0.630387 0.559998 38 38 38
-0.388021 0.640026 0.599998 51 51 51
-0.359563 0.640026 0.571685 38 38 38
-0.378369 0.640026 0.759998 98 98 98
-0.359563 0.625125 0.759998 98 98 98
-0.359563 0.640026 0.748287 98 98 98
-0.359563 0.625125 0.799998 98 98 98
-0.391150 0.680026 -0.560002 121 121 121
-0.359563 0.653418 -0.560002 144 144 144
-0.359563 0.680026 -0.536577 127 127 127
-0.359563 0.660674 -0.240002 47 47 47
-0.379621 0.680026 -0.200002 17 17 17
-0.359563 0.680026 -0.220650 47 47 47
-0.379621 0.680026 -0.160002 17 17 17
-0.379526 0.680026 -0.000002 88 88 88
-0.359563 0.660063 -0.000002 88 88 88
-0.359563 0.680026 -0.019965 88 88 88
-0.359563 0.660063 0.039998 88 88 88
-0.359563 0.660063 0.079998 88 88 88
-0.372173 0.680026 0.319998 103 103 103
-0.359563 0.669698 0.319998 103 103 103
-0.359563 0.680026 0.309965 103 103 103
-0.359563 0.669698 0.359998 103 103 103
-0.371947 0.680026 0.599998 69 69 69
-0.359563 0.680026 0.586276 69 69 69
-0.369078 0.680026 0.639998 46 46 46
-0.370048 0.680026 0.679998 46 46 46
-0.368745 0.680026 0.719998 46 46 46
-0.359563 0.680026 0.730820 46 46 46
-0.386386 0.720026 -0.520002 99 99 99
-0.359563 0.698538 -0.520002 127 127 127
-0.359563 0.720026 -0.499784 106 106 106
-0.359563 0.701496 -0.200002 26 26 26
-0.359563 0.700785 -0.160002 24 24 24
-0.359563 0.700764 -0.120002 49 49 49
-0.359563 0.700764 -0.080002 49 49 49
-0.359563 0.700764 -0.040002 49 49 49
-0.385874 0.720026 0.279998 96 96 96
-0.359563 0.720026 0.311861 106 106 106
-0.359563 0.691742 0.599998 69 69 69
-0.359563 0.689477 0.639998 46 46 46
-0.359563 0.689099 0.679998 46 46 46
-0.359563 0.689099 0.719998 46 46 46
-0.386942 0.760026 -0.480002 85 85 85
-0.359563 0.739545 -0.480002 106 106 106
-0.359563 0.760026 -0.458359 85 85 85
-0.367502 0.760026 0.239998 103 103 103
-0.359563 0.754096 0.239998 103 103 103
-0.359563 0.760026 0.234060 103 103 103
-0.359563 0.754096 0.279998 103 103 103
-0.395188 0.800026 -0.440002 51 51 51
-0.359563 0.776952 -0.440002 85 85 85
-0.359563 0.800026 -0.415303 52 52 52
-0.382745 0.800026 0.199998 80 80 80
-0.359563 0.800026 0.230192 99 99 99
-0.359563 0.813714 -0.400002 52 52 52
-0.376034 0.840026 -0.360002 39 39 39
-0.359563 0.840026 -0.365438 39 39 39
-0.392172 0.840026 -0.320002 35 35 35
-0.388303 0.840026 0.159998 74 74 74
-0.359563 0.824107 0.159998 80 80 80
-0.359563 0.840026 0.139944 85 85 85
-0.359563 0.824107 0.199998 80 80 80
-0.359563 0.844307 -0.360002 39 39 39
-0.359563 0.865176 -0.320002 18 18 18
-0.374262 0.880026 -0.280002 17 17 17
-0.359563 0.880026 -0.298457 17 17 17
-0.398702 0.880026 -0.240002 18 18 18
-0.377258 0.880026 0.039998 57 57 57
-0.359563 0.874615 0.039998 57 57 57
-0.359563 0.880026 0.032103 57 57 57
-0.359563 0.874615 0.079998 57 57 57
-0.359563 0.868476 0.119998 57 57 57
-0.359563 0.895101 -0.280002 17 17 17
-0.359563 0.898582 -0.240002 17 17 17
-0.359563 0.898582 -0.200002 17 17 17
-0.359563 0.904735 -0.160002 16 16 16
-0.359563 0.911281 -0.120002 33 33 33
-0.359563 0.908765 -0.080002 50 50 50
-0.359563 0.908765 -0.040002 50 50 50
-0.359563 0.908594 -0.000002 50 50 50
-0.334983 -0.919974 0.359998 226 226 226
-0.319563 -0.937360 0.359998 226 226 226
-0.319563 -0.919974 0.344578 226 226 226
-0.319563 -0.919974 0.393070 220 220 220
-0.319563 -0.903577 0.359998 226 226 226
-0.336574 -0.879974 0.399998 229 229 229
-0.319563 -0.912538 0.399998 220 220 220
-0.319563 -0.879974 0.384429 229 229 229
-0.328416 -0.879974 0.439998 215 215 215
-0.319563 -0.905060 0.439998 220 220 220
-0.333965 -0.879974 0.479998 215 215 215
-0.319563 -0.905060 0.479998 220 220 220
-0.333024 -0.879974 0.519998 215 215 215
-0.319563 -0.910067 0.519998 213 213 213
-0.323145 -0.879974 0.559998 201 201 201
-0.319563 -0.885134 0.559998 201 201 201
-0.319563 -0.879974 0.565459 201 201 201
-0.319563 -0.858808 0.399998 220 220 220
-0.340063 -0.839974 0.439998 233 233 233
-0.319563 -0.839974 0.421924 204 204 204
-0.335347 -0.839974 0.479998 218 218 218
-0.337748 -0.839974 0.519998 218 218 218
-0.332915 -0.839974 0.559998 218 218 218
-0.319563 -0.839974 0.588610 187 187 187
-0.336774 -0.799974 0.359998 206 206 206
-0.319563 -0.822550 0.359998 220 220 220
-0.319563 -0.799974 0.342187 206 206 206
-0.339351 -0.799974 0.399998 206 206 206
-0.319563 -0.822550 0.399998 220 220 220
-0.345179 -0.799974 0.439998 223 223 223
-0.340193 -0.799974 0.479998 223 223 223
-0.330586 -0.799974 0.519998 176 176 176
-0.329757 -0.799974 0.559998 176 176 176
-0.326848 -0.799974 0.599998 176 176 176
-0.319563 -0.823028 0.599998 187 187 187
-0.319563 -0.799974 0.617792 176 176 176
-0.319563 -0.779354 0.359998 224 224 224
-0.335219 -0.759974 0.399998 191 191 191
-0.319563 -0.759974 0.381947 191 191 191
-0.338666 -0.759974 0.439998 191 191 191
-0.343342 -0.759974 0.479998 220 220 220
-0.337260 -0.759974 0.519998 178 178 178
-0.319563 -0.769477 0.559998 176 176 176
-0.319563 -0.759974 0.554509 176 176 176
-0.319563 -0.769477 0.599998 176 176 176
-0.339013 -0.719974 0.399998 185 185 185
-0.319563 -0.719974 0.381794 185 185 185
-0.333095 -0.719974 0.439998 134 134 134
-0.337466 -0.719974 0.479998 134 134 134
-0.337473 -0.719974 0.519998 134 134 134
-0.324009 -0.719974 0.559998 149 149 149
-0.319563 -0.742455 0.559998 176 176 176
-0.319563 -0.719974 0.567986 149 149 149
-0.319563 -0.698893 0.399998 223 223 223
-0.327894 -0.679974 0.439998 184 184 184
-0.319563 -0.679974 0.431109 184 184 184
-0.331010 -0.679974 0.479998 200 200 200
-0.334435 -0.679974 0.519998 200 200 200
-0.332368 -0.679974 0.559998 200 200 200
-0.319563 -0.679974 0.584191 180 180 180
-0.319563 -0.660156 0.439998 184 184 184
-0.323700 -0.639974 0.479998 211 211 211
-0.319563 -0.639974 0.469735 211 211 211
-0.319563 -0.654742 0.519998 203 203 203
-0.319563 -0.639974 0.491305 211 211 211
-0.319563 -0.654742 0.559998 203 203 203
-0.319563 -0.628394 0.479998 211 211 211
-0.343196 -0.279974 -0.120002 246 246 246
-0.319563 -0.301986 -0.120002 236 236 236
-0.319563 -0.279974 -0.148804 240 240 240
-0.319563 -0.279974 -0.085184 242 242 242
-0.339013 -0.239974 -0.240002 248 248 248
-0.319563 -0.258269 -0.240002 248 248 248
-0.319563 -0.239974 -0.266349 245 245 245
-0.343752 -0.239974 -0.200002 239 239 239
-0.319563 -0.263044 -0.200002 240 240 240
-0.352395 -0.239974 -0.160002 248 248 248
-0.319563 -0.263044 -0.160002 240 240 240
-0.319563 -0.272698 -0.080002 242 242 242
-0.319563 -0.272940 -0.040002 242 242 242
-0.319563 -0.272940 -0.000002 242 242 242
-0.351298 -0.239974 0.039998 229 229 229
-0.319563 -0.269143 0.039998 236 236 236
-0.351535 -0.239974 0.079998 229 229 229
-0.319563 -0.266103 0.079998 235 235 235
-0.350463 -0.239974 0.119998 229 229 229
-0.319563 -0.264626 0.119998 235 235 235
-0.342955 -0.239974 0.159998 225 225 225
-0.319563 -0.264626 0.159998 235 235 235
-0.338042 -0.239974 0.199998 233 233 233
-0.319563 -0.260115 0.199998 231 231 231
-0.319563 -0.239974 0.228551 214 214 214
-0.344117 -0.199974 -0.360002 239 239 239
-0.319563 -0.227024 -0.360002 245 245 245
-0.319563 -0.199974 -0.379036 252 252 252
-0.349501 -0.199974 -0.320002 239 239 239
-0.319563 -0.231826 -0.320002 245 245 245
-0.319563 -0.231826 -0.280002 245 245 245
-0.346698 -0.199974 0.239998 208 208 208
-0.319563 -0.233377 0.239998 214 214 214
-0.339234 -0.199974 0.279998 217 217 217
-0.319563 -0.212854 0.279998 217 217 217
-0.319563 -0.199974 0.315383 205 205 205
-0.341199 -0.159974 -0.440002 249 249 249
-0.319563 -0.184207 -0.440002 251 251 251
-0.319563 -0.159974 -0.476969 241 241 241
-0.319563 -0.184207 -0.400002 251 251 251
-0.319563 -0.197374 0.319998 205 205 205
-0.319563 -0.194649 0.359998 205 205 205
-0.350022 -0.159974 0.399998 192 192 192
-0.319563 -0.194649 0.399998 205 205 205
-0.333501 -0.159974 0.439998 168 168 168
-0.319563 -0.174021 0.439998 168 168 168
-0.319563 -0.159974 0.466838 156 156 156
-0.325692 -0.119974 -0.560002 237 237 237
-0.319563 -0.127295 -0.560002 237 237 237
-0.319563 -0.119974 -0.567618 237 237 237
-0.333291 -0.119974 -0.520002 237 237 237
-0.319563 -0.127295 -0.520002 237 237 237
-0.319563 -0.151289 -0.480002 241 241 241
-0.319563 -0.154038 0.479998 156 156 156
-0.319563 -0.138497 0.519998 129 129 129
-0.319563 -0.124346 0.559998 121 121 121
-0.331583 -0.119974 0.599998 121 121 121
-0.319563 -0.124346 0.599998 121 121 121
-0.323759 -0.119974 0.639998 121 121 121
-0.319563 -0.122855 0.639998 121 121 121
-0.319563 -0.119974 0.645871 121 121 121
-0.333808 -0.079974 -0.560002 246 246 246
-0.319563 -0.079974 -0.567310 246 246 246
-0.347800 -0.079974 -0.520002 237 237 237
-0.340557 -0.079974 -0.040002 255 255 255
-0.319563 -0.101726 -0.040002 255 255 255
-0.319563 -0.079974 -0.060110 255 255 255
-0.340826 -0.079974 -0.000002 255 255 255
-0.319563 -0.101726 -0.000002 255 255 255
-0.341015 -0.079974 0.039998 254 254 254
-0.319563 -0.101915 0.039998 255 255 255
-0.319563 -0.079974 0.060296 255 255 255
-0.331831 -0.079974 0.679998 112 112 112
-0.319563 -0.093428 0.679998 112 112 112
-0.319563 -0.079974 0.696468 112 112 112
-0.323550 -0.039974 -0.640002 250 250 250
-0.319563 -0.045211 -0.640002 250 250 250
-0.319563 -0.039974 -0.644641 250 250 250
-0.329405 -0.039974 -0.600002 250 250 250
-0.319563 -0.045211 -0.600002 250 250 250
-0.339703 -0.039974 -0.200002 255 255 255
-0.319563 -0.060317 -0.200002 255 255 255
-0.319563 -0.039974 -0.220194 255 255 255
-0.339703 -0.039974 -0.160002 255 255 255
-0.319563 -0.060317 -0.160002 255 255 255
-0.319563 -0.060317 -0.120002 255 255 255
-0.319563 -0.060083 -0.080002 255 255 255
-0.339773 -0.039974 0.079998 246 246 246
-0.319563 -0.060272 0.079998 255 255 255
-0.339773 -0.039974 0.119998 246 246 246
-0.319563 -0.060730 0.119998 247 247 247
-0.339773 -0.039974 0.159998 246 246 246
-0.319563 -0.060730 0.159998 247 247 247
-0.340399 -0.039974 0.199998 234 234 234
-0.319563 -0.060730 0.199998 247 247 247
-0.341260 -0.039974 0.239998 233 233 233
-0.319563 -0.061162 0.239998 237 237 237
-0.319563 -0.039974 0.260426 215 215 215
-0.329637 -0.039974 0.719998 98 98 98
-0.319563 -0.053824 0.719998 98 98 98
-0.319563 -0.039974 0.732215 98 98 98
-0.319563 -0.029114 -0.640002 250 250 250
-0.341321 0.000026 -0.600002 236 236 236
-0.319563 0.000026 -0.627661 244 244 244
-0.339817 0.000026 -0.320002 255 255 255
-0.319563 -0.020166 -0.320002 255 255 255
-0.319563 0.000026 -0.340742 255 255 255
-0.339817 0.000026 -0.280002 255 255 255
-0.319563 -0.020166 -0.280002 255 255 255
-0.319563 -0.020166 -0.240002 255 255 255
-0.340193 0.000026 0.279998 214 214 214
-0.319563 -0.020402 0.279998 215 215 215
-0.340193 0.000026 0.319998 214 214 214
-0.319563 -0.021661 0.319998 197 197 197
-0.319563 0.000026 0.340897 195 195 195
-0.320686 0.000026 0.679998 104 104 104
-0.319563 -0.002571 0.679998 104 104 104
-0.319563 0.000026 0.679052 104 104 104
-0.319563 -0.002571 0.719998 104 104 104
-0.343311 0.040026 -0.640002 255 255 255
-0.319563 0.040026 -0.620190 235 235 235
-0.341317 0.040026 -0.400002 255 255 255
-0.319563 0.019286 -0.400002 255 255 255
-0.319563 0.040026 -0.420840 255 255 255
-0.319563 0.019286 -0.360002 255 255 255
-0.319563 0.019126 0.359998 195 195 195
-0.339463 0.040026 0.399998 251 251 251
-0.319563 0.040026 0.380098 251 251 251
-0.319563 0.001486 0.679998 104 104 104
-0.338044 0.040026 0.719998 98 98 98
-0.319563 0.040026 0.703000 98 98 98
-0.330154 0.080026 -0.680002 254 254 254
-0.319563 0.064473 -0.680002 254 254 254
-0.319563 0.080026 -0.692256 254 254 254
-0.319563 0.064473 -0.640002 254 254 254
-0.339722 0.080026 -0.400002 255 255 255
-0.319563 0.080026 -0.421377 255 255 255
-0.339722 0.080026 -0.360002 255 255 255
-0.319563 0.059926 0.399998 251 251 251
-0.319563 0.059926 0.439998 251 251 251
-0.319563 0.059926 0.479998 251 251 251
-0.340718 0.080026 0.519998 89 89 89
-0.319563 0.059767 0.519998 121 121 121
-0.319563 0.080026 0.540866 95 95 95
-0.319563 0.061161 0.719998 95 95 95
-0.347274 0.080026 0.759998 90 90 90
-0.319563 0.080026 0.734609 95 95 95
-0.319563 0.107591 -0.680002 244 244 244
-0.344566 0.120026 -0.640002 231 231 231
-0.319563 0.120026 -0.673412 244 244 244
-0.342727 0.120026 -0.480002 255 255 255
-0.319563 0.098650 -0.480002 255 255 255
-0.319563 0.120026 -0.502243 255 255 255
-0.340116 0.120026 -0.440002 255 255 255
-0.319563 0.098650 -0.440002 255 255 255
-0.341522 0.120026 0.559998 75 75 75
-0.319563 0.099158 0.559998 95 95 95
-0.319563 0.120026 0.581692 86 86 86
-0.319563 0.111174 0.759998 77 77 77
-0.354330 0.120026 0.799998 75 75 75
-0.319563 0.120026 0.767171 77 77 77
-0.343629 0.160026 -0.680002 253 253 253
-0.319563 0.160026 -0.659426 254 254 254
-0.319563 0.140545 -0.480002 255 255 255
-0.340677 0.160026 -0.440002 255 255 255
-0.319563 0.160026 -0.460521 255 255 255
-0.339701 0.160026 0.559998 102 102 102
-0.341506 0.160026 0.599998 94 94 94
-0.319563 0.138332 0.599998 86 86 86
-0.319563 0.160026 0.621694 91 91 91
-0.319563 0.152334 0.799998 92 92 92
-0.354671 0.160026 0.839998 89 89 89
-0.319563 0.160026 0.807482 92 92 92
-0.326315 0.200026 -0.720002 247 247 247
-0.319563 0.189415 -0.720002 247 247 247
-0.319563 0.200026 -0.727826 247 247 247
-0.343433 0.200026 -0.680002 241 241 241
-0.319563 0.189415 -0.680002 247 247 247
-0.338138 0.200026 -0.480002 255 255 255
-0.319563 0.200026 -0.461427 255 255 255
-0.339194 0.200026 0.559998 106 106 106
-0.319563 0.180395 0.559998 106 106 106
-0.319563 0.200026 0.540367 106 106 106
-0.319563 0.180395 0.599998 106 106 106
-0.346028 0.200026 0.799998 117 117 117
-0.319563 0.200026 0.828944 132 132 132
-0.319563 0.213812 -0.720002 247 247 247
-0.340620 0.240026 -0.680002 224 224 224
-0.319563 0.240026 -0.705504 220 220 220
-0.339406 0.240026 -0.440002 255 255 255
-0.319563 0.220183 -0.440002 255 255 255
-0.319563 0.240026 -0.420159 255 255 255
-0.319563 0.219657 0.559998 106 106 106
-0.338766 0.240026 0.599998 127 127 127
-0.319563 0.240026 0.580795 127 127 127
-0.331543 0.240026 0.839998 136 136 136
-0.319563 0.217945 0.839998 132 132 132
-0.319563 0.240026 0.852619 136 136 136
-0.354084 0.280026 -0.720002 238 238 238
-0.319563 0.280026 -0.692077 246 246 246
-0.341124 0.280026 -0.480002 255 255 255
-0.319563 0.259868 -0.480002 255 255 255
-0.319563 0.280026 -0.501003 255 255 255
-0.319563 0.259868 -0.440002 255 255 255
-0.340110 0.280026 0.559998 92 92 92
-0.319563 0.280026 0.580401 165 165 165
-0.330307 0.280026 0.799998 143 143 143
-0.319563 0.262837 0.799998 143 143 143
-0.319563 0.280026 0.789937 143 143 143
-0.319563 0.262837 0.839998 143 143 143
-0.334960 0.320026 -0.680002 223 223 223
-0.319563 0.299776 -0.680002 246 246 246
-0.319563 0.320026 -0.666869 223 223 223
-0.340059 0.320026 -0.480002 255 255 255
-0.319563 0.320026 -0.502538 253 253 253
-0.340059 0.320026 -0.440002 255 255 255
-0.340970 0.320026 0.599998 123 123 123
-0.319563 0.299623 0.599998 165 165 165
-0.319563 0.320026 0.621155 137 137 137
-0.319563 0.299382 0.799998 143 143 143
-0.352067 0.320026 0.839998 132 132 132
-0.319563 0.320026 0.809730 147 147 147
-0.330272 0.360026 -0.720002 233 233 233
-0.319563 0.340022 -0.720002 223 223 223
-0.319563 0.360026 -0.732313 233 233 233
-0.319563 0.340022 -0.680002 223 223 223
-0.338503 0.360026 -0.480002 246 246 246
-0.319563 0.341086 -0.480002 246 246 246
-0.319563 0.360026 -0.461062 246 246 246
-0.339349 0.360026 0.399998 10 10 10
-0.319563 0.340240 0.399998 10 10 10
-0.319563 0.360026 0.380212 10 10 10
-0.319563 0.340240 0.439998 10 10 10
-0.319563 0.340240 0.479998 10 10 10
-0.319563 0.341068 0.519998 10 10 10
-0.319563 0.340843 0.559998 122 122 122
-0.319563 0.340843 0.599998 122 122 122
-0.332874 0.360026 0.799998 131 131 131
-0.319563 0.360026 0.813986 131 131 131
-0.319563 0.378336 -0.720002 233 233 233
-0.340002 0.400026 -0.680002 208 208 208
-0.319563 0.400026 -0.704612 213 213 213
-0.339404 0.400026 -0.440002 249 249 249
-0.319563 0.380185 -0.440002 249 249 249
-0.319563 0.400026 -0.420162 249 249 249
-0.340720 0.400026 0.359998 16 16 16
-0.319563 0.400026 0.380770 34 34 34
-0.343920 0.400026 0.759998 117 117 117
-0.319563 0.376229 0.759998 131 131 131
-0.319563 0.400026 0.736897 132 132 132
-0.319563 0.376229 0.799998 131 131 131
-0.342044 0.440026 -0.680002 214 214 214
-0.319563 0.440026 -0.686746 211 211 211
-0.354536 0.440026 -0.640002 214 214 214
-0.341737 0.440026 -0.480002 221 221 221
-0.319563 0.419866 -0.480002 249 249 249
-0.319563 0.440026 -0.501547 218 218 218
-0.319563 0.419866 -0.440002 249 249 249
-0.338404 0.440026 0.319998 80 80 80
-0.319563 0.421185 0.319998 80 80 80
-0.319563 0.440026 0.301157 80 80 80
-0.319563 0.421185 0.359998 80 80 80
-0.356338 0.440026 0.719998 142 142 142
-0.326127 0.440026 0.759998 147 147 147
-0.319563 0.438963 0.759998 147 147 147
-0.319563 0.440026 0.760673 147 147 147
-0.344808 0.480026 -0.680002 195 195 195
-0.319563 0.449172 -0.680002 211 211 211
-0.319563 0.480026 -0.658905 199 199 199
-0.319563 0.460592 -0.480002 194 194 194
-0.340784 0.480026 -0.440002 203 203 203
-0.319563 0.480026 -0.460568 194 194 194
-0.341587 0.480026 0.279998 80 80 80
-0.319563 0.480026 0.301210 113 113 113
-0.340527 0.480026 0.759998 113 113 113
-0.319563 0.480026 0.781603 115 115 115
-0.332803 0.520026 -0.640002 185 185 185
-0.319563 0.506098 -0.640002 185 185 185
-0.319563 0.520026 -0.628909 185 185 185
-0.319563 0.500093 -0.440002 155 155 155
-0.340045 0.520026 -0.400002 189 189 189
-0.319563 0.520026 -0.420069 155 155 155
-0.338311 0.520026 0.239998 134 134 134
-0.319563 0.501278 0.239998 134 134 134
-0.319563 0.520026 0.221250 134 134 134
-0.319563 0.501278 0.279998 134 134 134
-0.330847 0.520026 0.799998 98 98 98
-0.319563 0.504292 0.799998 98 98 98
-0.319563 0.520026 0.811795 98 98 98
-0.323597 0.560026 -0.680002 169 169 169
-0.319563 0.548466 -0.680002 169 169 169
-0.319563 0.560026 -0.684626 169 169 169
-0.332632 0.560026 -0.640002 169 169 169
-0.319563 0.548466 -0.640002 169 169 169
-0.339750 0.560026 -0.400002 150 150 150
-0.319563 0.560026 -0.421937 158 158 158
-0.339750 0.560026 -0.360002 150 150 150
-0.341324 0.560026 0.199998 120 120 120
-0.319563 0.560026 0.221034 134 134 134
-0.330811 0.560026 0.479998 10 10 10
-0.358569 0.560026 0.559998 11 11 11
-0.319563 0.554512 0.559998 10 10 10
-0.319563 0.560026 0.532397 10 10 10
-0.319563 0.560026 0.566092 10 10 10
-0.324052 0.560026 0.759998 107 107 107
-0.319563 0.550431 0.759998 107 107 107
-0.319563 0.560026 0.755900 107 107 107
-0.319563 0.550431 0.799998 107 107 107
-0.319563 0.565813 -0.680002 169 169 169
-0.332307 0.600026 -0.640002 149 149 149
-0.319563 0.600026 -0.655003 149 149 149
-0.319563 0.581605 -0.400002 139 139 139
-0.339705 0.600026 -0.360002 116 116 116
-0.319563 0.600026 -0.381581 139 139 139
-0.339705 0.600026 -0.320002 116 116 116
-0.338721 0.600026 0.159998 131 131 131
-0.319563 0.580867 0.159998 131 131 131
-0.319563 0.600026 0.140840 131 131 131
-0.319563 0.580867 0.199998 131 131 131
-0.346652 0.600026 0.399998 40 40 40
-0.319563 0.591196 0.439998 97 97 97
-0.319563 0.600026 0.438635 97 97 97
-0.319563 0.565241 0.479998 10 10 10
-0.319563 0.565241 0.519998 10 10 10
-0.332575 0.600026 0.559998 25 25 25
-0.319563 0.600026 0.572766 25 25 25
-0.319563 0.566167 0.759998 107 107 107
-0.339707 0.600026 0.799998 103 103 103
-0.319563 0.600026 0.781183 118 118 118
-0.319563 0.617061 -0.640002 149 149 149
-0.336347 0.640026 -0.600002 139 139 139
-0.319563 0.640026 -0.619626 139 139 139
-0.319563 0.621355 -0.360002 108 108 108
-0.339847 0.640026 -0.320002 78 78 78
-0.319563 0.640026 -0.341331 108 108 108
-0.339847 0.640026 -0.280002 78 78 78
-0.340807 0.640026 0.119998 112 112 112
-0.319563 0.640026 0.140826 126 126 126
-0.326492 0.640026 0.399998 121 121 121
-0.322435 0.640026 0.439998 121 121 121
-0.319563 0.611697 0.439998 97 97 97
-0.319563 0.640026 0.443141 121 121 121
-0.329977 0.640026 0.599998 28 28 28
-0.319563 0.631690 0.599998 28 28 28
-0.319563 0.640026 0.609538 28 28 28
-0.349974 0.640026 0.759998 98 98 98
-0.319563 0.640026 0.799598 114 114 114
-0.319563 0.662359 -0.600002 124 124 124
-0.339778 0.680026 -0.560002 130 130 130
-0.319563 0.680026 -0.584145 124 124 124
-0.319563 0.661932 -0.320002 66 66 66
-0.319563 0.660309 -0.280002 23 23 23
-0.340211 0.680026 -0.240002 47 47 47
-0.319563 0.680026 -0.260285 23 23 23
-0.339600 0.680026 -0.000002 88 88 88
-0.339600 0.680026 0.039998 88 88 88
-0.319563 0.660981 0.079998 119 119 119
-0.319563 0.680026 0.060953 119 119 119
-0.319563 0.660981 0.119998 119 119 119
-0.350722 0.680026 0.319998 103 103 103
-0.332778 0.680026 0.359998 120 120 120
-0.319563 0.643001 0.399998 121 121 121
-0.319563 0.680026 0.364813 120 120 120
-0.319563 0.643001 0.439998 121 121 121
-0.337377 0.680026 0.559998 71 71 71
-0.319563 0.651238 0.559998 28 28 28
-0.319563 0.680026 0.541997 71 71 71
-0.319563 0.651238 0.599998 28 28 28
-0.323303 0.680026 0.759998 87 87 87
-0.322494 0.680026 0.799998 87 87 87
-0.319563 0.642291 0.799998 114 114 114
-0.319563 0.680026 0.805082 87 87 87
-0.319563 0.706891 -0.560002 111 111 111
-0.341676 0.720026 -0.520002 121 121 121
-0.319563 0.720026 -0.546811 111 111 111
-0.319563 0.701192 -0.240002 18 18 18
-0.319563 0.700483 -0.200002 34 34 34
-0.319563 0.700483 -0.160002 34 34 34
-0.319563 0.700483 -0.120002 34 34 34
-0.319563 0.700340 -0.080002 56 56 56
-0.319563 0.700596 -0.040002 81 81 81
-0.319563 0.700596 -0.000002 81 81 81
-0.319563 0.700596 0.039998 81 81 81
-0.338479 0.720026 0.319998 117 117 117
-0.325429 0.720026 0.359998 117 117 117
-0.319563 0.720026 0.366564 117 117 117
-0.329748 0.720026 0.559998 75 75 75
-0.319563 0.720026 0.548321 75 75 75
-0.319563 0.696481 0.599998 71 71 71
-0.319563 0.720026 0.570904 75 75 75
-0.319563 0.696481 0.639998 71 71 71
-0.319563 0.694227 0.679998 61 61 61
-0.319563 0.683240 0.719998 87 87 87
-0.319563 0.682904 0.759998 87 87 87
-0.319563 0.682904 0.799998 87 87 87
-0.319563 0.746919 -0.520002 86 86 86
-0.341599 0.760026 -0.480002 94 94 94
-0.319563 0.760026 -0.507057 86 86 86
-0.354468 0.760026 0.239998 103 103 103
-0.339927 0.760026 0.279998 103 103 103
-0.319563 0.727516 0.319998 117 117 117
-0.319563 0.760026 0.286142 106 106 106
-0.319563 0.727516 0.359998 117 117 117
-0.319563 0.729510 0.559998 75 75 75
-0.319563 0.784575 -0.480002 72 72 72
-0.338876 0.800026 -0.440002 53 53 53
-0.319563 0.800026 -0.463323 72 72 72
-0.328752 0.800026 0.239998 103 103 103
-0.321908 0.800026 0.279998 103 103 103
-0.319563 0.800026 0.282965 103 103 103
-0.319563 0.820191 -0.440002 43 43 43
-0.333902 0.840026 -0.400002 32 32 32
-0.319563 0.840026 -0.416808 32 32 32
-0.343954 0.840026 0.159998 80 80 80
-0.319563 0.811781 0.199998 103 103 103
-0.319563 0.840026 0.192644 88 88 88
-0.319563 0.802504 0.239998 103 103 103
-0.319563 0.802504 0.279998 103 103 103
-0.319563 0.853563 -0.400002 32 32 32
-0.319563 0.875307 -0.360002 13 13 13
-0.319563 0.875307 -0.320002 13 13 13
-0.324753 0.880026 -0.280002 13 13 13
-0.319563 0.877568 -0.280002 13 13 13
-0.319563 0.880026 -0.276690 13 13 13
-0.353967 0.880026 0.039998 57 57 57
-0.345297 0.880026 0.079998 57 57 57
-0.319563 0.860407 0.119998 68 68 68
-0.319563 0.880026 0.093048 75 75 75
-0.319563 0.860407 0.159998 68 68 68
-0.319563 0.902368 -0.240002 15 15 15
-0.319563 0.914351 -0.200002 17 17 17
-0.346163 0.920026 -0.160002 16 16 16
-0.319563 0.920026 -0.194332 17 17 17
-0.351643 0.920026 -0.120002 33 33 33
-0.349286 0.920026 -0.080002 50 50 50
-0.323971 0.920026 -0.040002 50 50 50
-0.319563 0.909205 -0.000002 64 64 64
-0.319563 0.920026 -0.036753 50 50 50
-0.319563 0.909205 0.039998 64 64 64
-0.319563 0.897695 0.079998 75 75 75
-0.319563 0.941964 -0.160002 28 28 28
-0.319563 0.942328 -0.120002 42 42 42
-0.319563 0.942328 -0.080002 42 42 42
-0.319563 0.922073 -0.040002 50 50 50
-0.280197 -0.959974 0.559998 201 201 201
-0.279563 -0.961422 0.559998 201 201 201
-0.279563 -0.959974 0.553864 201 201 201
-0.279563 -0.959974 0.561772 201 201 201
-0.299638 -0.919974 0.359998 226 226 226
-0.311093 -0.919974 0.439998 220 220 220
-0.279563 -0.954026 0.439998 215 215 215
-0.279563 -0.919974 0.422546 173 173 173
-0.306038 -0.919974 0.479998 220 220 220
-0.279563 -0.950000 0.479998 215 215 215
-0.310743 -0.919974 0.519998 213 213 213
-0.279563 -0.950000 0.519998 215 215 215
-0.298385 -0.919974 0.559998 175 175 175
-0.285579 -0.919974 0.599998 162 162 162
-0.279563 -0.925300 0.599998 162 162 162
-0.279563 -0.919974 0.603077 162 162 162
-0.285258 -0.879974 0.399998 219 219 219
-0.291633 -0.879974 0.439998 219 219 219
-0.279563 -0.886509 0.439998 219 219 219
-0.279563 -0.879974 0.445997 219 219 219
-0.300472 -0.879974 0.599998 175 175 175
-0.279563 -0.879974 0.623586 139 139 139
-0.302255 -0.839974 0.399998 220 220 220
-0.279563 -0.874992 0.399998 219 219 219
-0.279563 -0.839974 0.376395 222 222 222
-0.279563 -0.874992 0.439998 219 219 219
-0.306379 -0.839974 0.599998 187 187 187
-0.289876 -0.839974 0.639998 142 142 142
-0.279563 -0.860226 0.639998 139 139 139
-0.279563 -0.839974 0.655147 142 142 142
-0.299698 -0.799974 0.359998 206 206 206
-0.280878 -0.799974 0.399998 227 227 227
-0.279563 -0.801274 0.399998 227 227 227
-0.279563 -0.799974 0.401303 227 227 227
-0.286050 -0.799974 0.599998 122 122 122
-0.279563 -0.804559 0.599998 122 122 122
-0.279563 -0.799974 0.597668 122 122 122
-0.279563 -0.804559 0.639998 122 122 122
-0.297151 -0.759974 0.399998 224 224 224
-0.279563 -0.759974 0.421357 223 223 223
-0.316790 -0.759974 0.559998 176 176 176
-0.314359 -0.759974 0.599998 176 176 176
-0.279563 -0.796574 0.599998 122 122 122
-0.279563 -0.759974 0.621653 125 125 125
-0.283488 -0.719974 0.399998 219 219 219
-0.286269 -0.719974 0.439998 219 219 219
-0.279563 -0.726934 0.439998 219 219 219
-0.279563 -0.719974 0.443886 219 219 219
-0.306295 -0.719974 0.599998 168 168 168
-0.280449 -0.719974 0.639998 120 120 120
-0.279563 -0.720780 0.639998 120 120 120
-0.279563 -0.719974 0.640437 120 120 120
-0.292488 -0.679974 0.399998 220 220 220
-0.279563 -0.711873 0.399998 219 219 219
-0.279563 -0.679974 0.385334 220 220 220
-0.279563 -0.711873 0.439998 219 219 219
-0.303901 -0.679974 0.599998 180 180 180
-0.293919 -0.679974 0.639998 127 127 127
-0.279563 -0.679974 0.660507 121 121 121
-0.279563 -0.656485 0.399998 226 226 226
-0.311027 -0.639974 0.439998 202 202 202
-0.279563 -0.639974 0.409531 226 226 226
-0.311884 -0.639974 0.519998 203 203 203
-0.308681 -0.639974 0.559998 203 203 203
-0.279563 -0.643987 0.599998 125 125 125
-0.279563 -0.639974 0.597301 125 125 125
-0.279563 -0.643987 0.639998 125 125 125
-0.312117 -0.599974 0.439998 213 213 213
-0.279563 -0.599974 0.418470 227 227 227
-0.310671 -0.599974 0.479998 213 213 213
-0.311976 -0.599974 0.519998 222 222 222
-0.303675 -0.599974 0.559998 185 185 185
-0.295169 -0.599974 0.599998 141 141 141
-0.279563 -0.635197 0.599998 125 125 125
-0.279563 -0.599974 0.616173 141 141 141
-0.279563 -0.571413 0.439998 223 223 223
-0.307502 -0.559974 0.479998 219 219 219
-0.279563 -0.559974 0.452545 223 223 223
-0.303026 -0.559974 0.519998 219 219 219
-0.301974 -0.559974 0.559998 212 212 212
-0.295621 -0.559974 0.599998 155 155 155
-0.279563 -0.559974 0.629586 146 146 146
-0.298037 -0.519974 0.399998 157 157 157
-0.279563 -0.547965 0.399998 223 223 223
-0.279563 -0.519974 0.380034 157 157 157
-0.302150 -0.519974 0.439998 226 226 226
-0.279563 -0.547965 0.439998 223 223 223
-0.305704 -0.519974 0.479998 226 226 226
-0.302154 -0.519974 0.519998 226 226 226
-0.290448 -0.519974 0.559998 154 154 154
-0.287896 -0.519974 0.599998 154 154 154
-0.285640 -0.519974 0.639998 154 154 154
-0.279563 -0.539768 0.639998 154 154 154
-0.279563 -0.519974 0.648865 154 154 154
-0.279563 -0.486801 0.399998 206 206 206
-0.295021 -0.479974 0.439998 161 161 161
-0.279563 -0.479974 0.409162 206 206 206
-0.299226 -0.479974 0.479998 161 161 161
-0.298429 -0.479974 0.519998 161 161 161
-0.291373 -0.479974 0.559998 160 160 160
-0.279563 -0.508566 0.599998 154 154 154
-0.279563 -0.479974 0.575816 160 160 160
-0.279563 -0.508566 0.639998 154 154 154
-0.287546 -0.439974 0.439998 188 188 188
-0.279563 -0.439974 0.431081 188 188 188
-0.289933 -0.439974 0.479998 177 177 177
-0.291199 -0.439974 0.519998 177 177 177
-0.290530 -0.439974 0.559998 177 177 177
-0.279563 -0.439974 0.583272 177 177 177
-0.279563 -0.427696 0.439998 188 188 188
-0.279563 -0.401045 0.479998 210 210 210
-0.279563 -0.419387 0.519998 189 189 189
-0.279563 -0.419387 0.559998 189 189 189
-0.293294 -0.279974 -0.200002 226 226 226
-0.279563 -0.290804 -0.200002 226 226 226
-0.279563 -0.279974 -0.217645 226 226 226
-0.300972 -0.279974 -0.160002 240 240 240
-0.279563 -0.297972 -0.160002 245 245 245
-0.279563 -0.297972 -0.120002 245 245 245
-0.309584 -0.279974 -0.080002 242 242 242
-0.279563 -0.301325 -0.080002 238 238 238
-0.310929 -0.279974 -0.040002 242 242 242
-0.279563 -0.305136 -0.040002 240 240 240
-0.311652 -0.279974 -0.000002 242 242 242
-0.279563 -0.306150 -0.000002 240 240 240
-0.307556 -0.279974 0.039998 236 236 236
-0.279563 -0.306150 0.039998 240 240 240
-0.304010 -0.279974 0.079998 235 235 235
-0.279563 -0.305237 0.079998 239 239 239
-0.307602 -0.279974 0.119998 235 235 235
-0.279563 -0.305146 0.119998 235 235 235
-0.298425 -0.279974 0.159998 231 231 231
-0.279563 -0.295675 0.159998 231 231 231
-0.293978 -0.279974 0.199998 231 231 231
-0.279563 -0.295675 0.199998 231 231 231
-0.291192 -0.279974 0.239998 231 231 231
-0.279563 -0.292818 0.239998 231 231 231
-0.279563 -0.279974 0.261425 227 227 227
-0.306650 -0.239974 -0.320002 245 245 245
-0.279563 -0.263190 -0.320002 235 235 235
-0.279563 -0.239974 -0.340650 247 247 247
-0.311482 -0.239974 -0.280002 245 245 245
-0.279563 -0.268878 -0.280002 235 235 235
-0.279563 -0.268878 -0.240002 235 235 235
-0.312002 -0.239974 0.239998 214 214 214
-0.298254 -0.239974 0.279998 231 231 231
-0.279563 -0.271224 0.279998 227 227 227
-0.287995 -0.239974 0.319998 224 224 224
-0.279563 -0.252931 0.319998 224 224 224
-0.279563 -0.239974 0.338443 224 224 224
-0.285070 -0.199974 -0.440002 233 233 233
-0.279563 -0.206271 -0.440002 233 233 233
-0.279563 -0.199974 -0.443528 233 233 233
-0.304465 -0.199974 -0.400002 251 251 251
-0.279563 -0.226323 -0.400002 247 247 247
-0.279563 -0.226323 -0.360002 247 247 247
-0.317382 -0.199974 0.319998 205 205 205
-0.315696 -0.199974 0.359998 205 205 205
-0.279563 -0.225959 0.359998 220 220 220
-0.279563 -0.199974 0.399121 192 192 192
-0.291766 -0.159974 -0.520002 255 255 255
-0.279563 -0.173990 -0.520002 255 255 255
-0.279563 -0.159974 -0.535609 255 255 255
-0.314604 -0.159974 -0.480002 241 241 241
-0.279563 -0.173990 -0.480002 255 255 255
-0.279563 -0.199476 0.399998 192 192 192
-0.279563 -0.198814 0.439998 192 192 192
-0.307047 -0.159974 0.479998 156 156 156
-0.279563 -0.198814 0.479998 192 192 192
-0.293742 -0.159974 0.519998 139 139 139
-0.279563 -0.175694 0.519998 139 139 139
-0.279563 -0.159974 0.539714 139 139 139
-0.309304 -0.119974 -0.560002 237 237 237
-0.279563 -0.119974 -0.539229 255 255 255
-0.279563 -0.146692 0.559998 146 146 146
-0.279563 -0.130750 0.599998 126 126 126
-0.310522 -0.119974 0.639998 121 121 121
-0.279563 -0.119974 0.621035 121 121 121
-0.293980 -0.079974 -0.600002 255 255 255
-0.279563 -0.099520 -0.600002 255 255 255
-0.279563 -0.079974 -0.617096 255 255 255
-0.279563 -0.099520 -0.560002 255 255 255
-0.299906 -0.079974 -0.160002 255 255 255
-0.279563 -0.100652 -0.160002 255 255 255
-0.279563 -0.079974 -0.180113 255 255 255
-0.299906 -0.079974 -0.120002 255 255 255
-0.279563 -0.100652 -0.120002 255 255 255
-0.299672 -0.079974 -0.080002 255 255 255
-0.279563 -0.100652 -0.080002 255 255 255
-0.279563 -0.100341 -0.040002 255 255 255
-0.279563 -0.100256 -0.000002 255 255 255
-0.279563 -0.100256 0.039998 255 255 255
-0.299861 -0.079974 0.079998 255 255 255
-0.279563 -0.100256 0.079998 255 255 255
-0.300319 -0.079974 0.119998 247 247 247
-0.279563 -0.100500 0.119998 255 255 255
-0.300319 -0.079974 0.159998 247 247 247
-0.279563 -0.101015 0.159998 250 250 250
-0.300319 -0.079974 0.199998 247 247 247
-0.279563 -0.101015 0.199998 250 250 250
-0.300751 -0.079974 0.239998 237 237 237
-0.279563 -0.101015 0.239998 250 250 250
-0.301511 -0.079974 0.279998 214 214 214
-0.279563 -0.101126 0.279998 213 213 213
-0.279563 -0.079974 0.300928 190 190 190
-0.279563 -0.103145 0.639998 121 121 121
-0.297587 -0.079974 0.679998 103 103 103
-0.279563 -0.079974 0.666447 103 103 103
-0.313752 -0.039974 -0.640002 250 250 250
-0.279563 -0.039974 -0.613438 255 255 255
-0.299755 -0.039974 -0.280002 255 255 255
-0.279563 -0.060085 -0.280002 255 255 255
-0.279563 -0.039974 -0.300552 255 255 255
-0.299755 -0.039974 -0.240002 255 255 255
-0.279563 -0.060085 -0.240002 255 255 255
-0.279563 -0.060085 -0.200002 255 255 255
-0.299991 -0.039974 0.279998 215 215 215
-0.301250 -0.039974 0.319998 197 197 197
-0.279563 -0.060904 0.319998 190 190 190
-0.279563 -0.039974 0.340906 168 168 168
-0.279563 -0.064045 0.679998 103 103 103
-0.304527 -0.039974 0.719998 98 98 98
-0.279563 -0.039974 0.699863 98 98 98
-0.284087 0.000026 -0.680002 250 250 250
-0.279563 -0.006366 -0.680002 250 250 250
-0.279563 0.000026 -0.685126 250 250 250
-0.291335 0.000026 -0.640002 250 250 250
-0.279563 -0.006366 -0.640002 250 250 250
-0.300303 0.000026 -0.360002 255 255 255
-0.279563 -0.020525 -0.360002 255 255 255
-0.279563 0.000026 -0.380207 255 255 255
-0.279563 -0.020525 -0.320002 255 255 255
-0.300463 0.000026 0.359998 195 195 195
-0.279563 -0.020882 0.359998 168 168 168
-0.279563 0.000026 0.380291 200 200 200
-0.318747 0.000026 0.679998 104 104 104
-0.314876 0.000026 0.719998 104 104 104
-0.279563 -0.009558 0.719998 101 101 101
-0.279563 0.000026 0.726288 101 101 101
-0.279563 0.011638 -0.680002 250 250 250
-0.302362 0.040026 -0.640002 235 235 235
-0.279563 0.040026 -0.667584 240 240 240
-0.299486 0.040026 -0.400002 255 255 255
-0.279563 0.040026 -0.380079 255 255 255
-0.299663 0.040026 0.399998 251 251 251
-0.279563 0.019733 0.399998 200 200 200
-0.299663 0.040026 0.439998 251 251 251
-0.279563 0.019220 0.439998 183 183 183
-0.299663 0.040026 0.479998 251 251 251
-0.279563 0.019220 0.479998 183 183 183
-0.299822 0.040026 0.519998 121 121 121
-0.279563 0.019220 0.519998 183 183 183
-0.303872 0.040026 0.559998 97 97 97
-0.279563 0.018395 0.559998 106 106 106
-0.279563 0.040026 0.583522 106 106 106
-0.304221 0.040026 0.719998 98 98 98
-0.279563 0.040026 0.746906 111 111 111
-0.305243 0.080026 -0.680002 254 254 254
-0.279563 0.080026 -0.657862 254 254 254
-0.300939 0.080026 -0.440002 255 255 255
-0.279563 0.059949 -0.440002 255 255 255
-0.279563 0.080026 -0.460597 255 255 255
-0.279563 0.059949 -0.400002 255 255 255
-0.298888 0.080026 0.519998 105 105 105
-0.279563 0.060701 0.519998 105 105 105
-0.279563 0.080026 0.500673 105 105 105
-0.279563 0.060701 0.559998 105 105 105
-0.295047 0.080026 0.759998 101 101 101
-0.279563 0.057783 0.759998 111 111 111
-0.279563 0.080026 0.775690 101 101 101
-0.286202 0.120026 -0.720002 247 247 247
-0.279563 0.110129 -0.720002 247 247 247
-0.279563 0.120026 -0.727711 247 247 247
-0.302224 0.120026 -0.680002 244 244 244
-0.279563 0.110129 -0.680002 247 247 247
-0.297970 0.120026 -0.480002 255 255 255
-0.279563 0.120026 -0.461595 255 255 255
-0.279563 0.099351 0.519998 105 105 105
-0.297631 0.120026 0.559998 103 103 103
-0.279563 0.120026 0.541930 103 103 103
-0.283956 0.120026 0.799998 95 95 95
-0.279563 0.114390 0.799998 95 95 95
-0.279563 0.120026 0.804234 95 95 95
-0.279563 0.134394 -0.720002 247 247 247
-0.301510 0.160026 -0.680002 228 228 228
-0.279563 0.160026 -0.706270 233 233 233
-0.299531 0.160026 -0.440002 255 255 255
-0.279563 0.140058 -0.440002 255 255 255
-0.279563 0.160026 -0.420034 255 255 255
-0.279563 0.138094 0.559998 103 103 103
-0.296916 0.160026 0.599998 100 100 100
-0.279563 0.160026 0.582645 100 100 100
-0.282457 0.160026 0.839998 84 84 84
-0.279563 0.157151 0.839998 84 84 84
-0.279563 0.160026 0.842628 84 84 84
-0.310539 0.200026 -0.720002 247 247 247
-0.279563 0.200026 -0.694432 251 251 251
-0.300988 0.200026 -0.480002 255 255 255
-0.279563 0.179993 -0.480002 255 255 255
-0.279563 0.200026 -0.500809 255 255 255
-0.279563 0.179993 -0.440002 255 255 255
-0.299932 0.200026 0.559998 106 106 106
-0.279563 0.200026 0.580631 123 123 123
-0.291331 0.200026 0.799998 130 130 130
-0.279563 0.167302 0.799998 84 84 84
-0.279563 0.200026 0.787903 130 130 130
-0.279563 0.167302 0.839998 84 84 84
-0.282380 0.240026 -0.680002 237 237 237
-0.279563 0.235399 -0.680002 237 237 237
-0.279563 0.240026 -0.677598 237 237 237
-0.299721 0.240026 -0.480002 255 255 255
-0.279563 0.240026 -0.501912 255 255 255
-0.299721 0.240026 -0.440002 255 255 255
-0.300361 0.240026 0.599998 127 127 127
-0.279563 0.219393 0.599998 123 123 123
-0.279563 0.240026 0.620916 141 141 141
-0.279563 0.219060 0.799998 130 130 130
-0.307090 0.240026 0.839998 136 136 136
-0.279563 0.240026 0.812261 154 154 154
-0.295449 0.280026 -0.720002 243 243 243
-0.279563 0.243664 -0.720002 237 237 237
-0.279563 0.280026 -0.738164 243 243 243
-0.279563 0.243664 -0.680002 237 237 237
-0.299080 0.280026 -0.480002 254 254 254
-0.279563 0.260509 -0.480002 254 254 254
-0.279563 0.280026 -0.460486 254 254 254
-0.298983 0.280026 0.559998 176 176 176
-0.279563 0.260606 0.559998 176 176 176
-0.279563 0.280026 0.540578 176 176 176
-0.279563 0.260606 0.599998 176 176 176
-0.309233 0.280026 0.799998 143 143 143
-0.279563 0.280026 0.828583 149 149 149
-0.281361 0.320026 -0.720002 221 221 221
-0.279563 0.320026 -0.720651 221 221 221
-0.307764 0.320026 -0.680002 223 223 223
-0.302099 0.320026 -0.520002 253 253 253
-0.279563 0.299542 -0.520002 254 254 254
-0.279563 0.320026 -0.541783 246 246 246
-0.279563 0.299542 -0.480002 254 254 254
-0.279563 0.299446 0.559998 176 176 176
-0.298147 0.320026 0.599998 162 162 162
-0.279563 0.320026 0.581414 162 162 162
-0.288669 0.320026 0.839998 164 164 164
-0.279563 0.301619 0.839998 164 164 164
-0.279563 0.320026 0.848839 164 164 164
-0.305406 0.360026 -0.720002 233 233 233
-0.279563 0.321031 -0.720002 221 221 221
-0.279563 0.360026 -0.697702 227 227 227
-0.279563 0.340465 -0.520002 243 243 243
-0.300623 0.360026 -0.480002 246 246 246
-0.279563 0.360026 -0.500441 243 243 243
-0.299777 0.360026 0.399998 10 10 10
-0.279563 0.340042 0.439998 10 10 10
-0.279563 0.360026 0.420015 10 10 10
-0.279563 0.341014 0.479998 10 10 10
-0.279563 0.341014 0.519998 10 10 10
-0.279563 0.341014 0.559998 10 10 10
-0.305917 0.360026 0.799998 131 131 131
-0.279563 0.329724 0.799998 164 164 164
-0.279563 0.360026 0.770865 147 147 147
-0.279563 0.329724 0.839998 164 164 164
-0.286209 0.400026 -0.680002 199 199 199
-0.279563 0.391759 -0.680002 199 199 199
-0.279563 0.400026 -0.674385 199 199 199
-0.299723 0.400026 -0.480002 249 249 249
-0.279563 0.400026 -0.501993 220 220 220
-0.299723 0.400026 -0.440002 249 249 249
-0.299004 0.400026 0.359998 62 62 62
-0.279563 0.380585 0.359998 62 62 62
-0.279563 0.400026 0.340557 62 62 62
-0.279563 0.380585 0.399998 62 62 62
-0.298369 0.400026 0.759998 119 119 119
-0.279563 0.400026 0.781864 116 116 116
-0.291974 0.440026 -0.720002 202 202 202
-0.279563 0.410521 -0.720002 199 199 199
-0.279563 0.440026 -0.733965 202 202 202
-0.279563 0.410521 -0.680002 199 199 199
-0.298671 0.440026 -0.480002 212 212 212
-0.279563 0.420918 -0.480002 212 212 212
-0.279563 0.440026 -0.460894 212 212 212
-0.300722 0.440026 0.319998 80 80 80
-0.279563 0.440026 0.340824 116 116 116
-0.283206 0.440026 0.799998 146 146 146
-0.279563 0.432901 0.799998 146 146 146
-0.279563 0.440026 0.803803 146 146 146
-0.279563 0.460550 -0.720002 186 186 186
-0.301013 0.480026 -0.680002 195 195 195
-0.279563 0.480026 -0.705983 186 186 186
-0.299532 0.480026 -0.440002 167 167 167
-0.279563 0.460057 -0.440002 167 167 167
-0.279563 0.480026 -0.420033 167 167 167
-0.298783 0.480026 0.279998 132 132 132
-0.279563 0.460806 0.279998 132 132 132
-0.279563 0.480026 0.260778 132 132 132
-0.279563 0.460806 0.319998 132 132 132
