ply
format ascii 1.0
element vertex 1268
property float x
property float y
property float z
property uchar red
property uchar green
property uchar blue
end_header
-0.155983 0.139379 0.293906 55 76 7
-0.155983 0.137816 0.308906 54 77 7
-0.155983 0.133780 0.323906 54 108 15
-0.159828 0.160181 0.143906 130 76 7
-0.155983 0.160181 0.145447 130 76 7
-0.155983 0.160181 0.214532 133 76 7
-0.155983 0.163634 0.143906 130 76 7
-0.155983 0.175181 0.137458 133 76 7
-0.155983 0.175181 0.214487 133 76 7
-0.155983 0.190181 0.136276 133 76 7
-0.155983 0.190181 0.214528 132 76 7
-0.155983 0.205181 0.136824 133 76 7
-0.155983 0.205181 0.215174 133 76 7
-0.155983 0.220181 0.136365 133 76 7
-0.155983 0.220181 0.215555 133 76 7
-0.155983 0.235181 0.136021 133 77 8
-0.155983 0.235181 0.216073 133 76 7
-0.155983 0.250181 0.137641 133 76 7
-0.155983 0.250181 0.217651 133 76 7
-0.155983 0.263647 0.143906 133 76 24
-0.155983 0.265181 0.148151 133 76 24
-0.163092 0.265181 0.173906 133 76 7
-0.167330 0.265181 0.188906 133 76 8
-0.155983 0.265181 0.211945 133 77 23
-0.155983 0.280181 0.156543 134 88 49
-0.155983 0.270109 0.173906 133 76 7
-0.155983 0.280181 0.165956 134 88 49
-0.155983 0.272680 0.188906 133 76 7
-0.155983 0.278879 0.203906 133 76 8
-0.155983 0.281700 0.158906 134 88 49
-0.140983 -0.296857 0.158906 134 90 45
-0.140983 -0.289819 0.151868 134 90 45
-0.140983 -0.289819 0.171709 133 76 9
-0.140983 -0.274819 0.158617 133 76 7
-0.144179 -0.274819 0.173906 133 76 7
-0.140983 -0.277392 0.173906 133 76 7
-0.147747 -0.274819 0.188906 133 76 8
-0.140983 -0.279859 0.188906 133 76 8
-0.140983 -0.282673 0.203906 133 76 9
-0.140983 -0.274819 0.210502 133 76 7
-0.140983 -0.271386 0.143906 133 77 31
-0.140983 -0.259819 0.138036 133 76 7
-0.140983 -0.259819 0.217050 133 76 7
-0.140983 -0.244819 0.136152 133 76 8
-0.140983 -0.244819 0.215896 133 76 7
-0.140983 -0.229819 0.136263 133 76 7
-0.140983 -0.229819 0.215441 131 76 7
-0.140983 -0.214819 0.137492 133 76 7
-0.140983 -0.214819 0.214581 133 76 7
-0.140983 -0.199819 0.136542 133 76 7
-0.140983 -0.199819 0.214476 133 76 7
-0.140983 -0.184819 0.139135 133 76 7
-0.140983 -0.184819 0.214495 133 76 7
-0.140983 -0.169819 0.143579 133 76 7
-0.140983 -0.169819 0.215043 130 76 7
-0.140983 -0.154819 0.143812 133 76 7
-0.140983 -0.154819 0.215194 131 76 7
-0.140983 -0.139819 0.143813 133 76 7
-0.140983 -0.139819 0.215272 132 76 7
-0.140983 -0.124819 0.143813 133 76 7
-0.140983 -0.124819 0.215181 130 73 7
-0.146514 -0.109819 0.143906 133 76 7
-0.140983 -0.109819 0.143814 133 76 7
-0.140983 -0.109819 0.215284 130 74 7
-0.146514 -0.094819 0.143906 133 76 7
-0.140983 -0.094819 0.143814 133 76 7
-0.140983 -0.094819 0.215370 131 74 7
-0.140983 -0.088739 0.143906 133 76 7
-0.140983 -0.079819 0.144077 133 76 7
-0.140983 -0.079819 0.215356 131 74 7
-0.140983 -0.064819 0.144077 133 76 7
-0.140983 -0.064819 0.215331 131 74 7
-0.140983 -0.049819 0.144077 133 76 7
-0.140983 -0.049819 0.214443 130 74 7
-0.140983 -0.034819 0.144077 133 76 7
-0.140983 -0.034819 0.214519 132 76 7
-0.140983 -0.019819 0.148466 132 76 7
-0.140983 -0.019819 0.215162 123 76 7
-0.144330 -0.019819 0.248906 55 77 16
-0.140983 -0.021876 0.248906 55 77 16
-0.140983 -0.019819 0.244194 55 77 16
-0.151874 -0.019819 0.263906 55 79 8
-0.140983 -0.026198 0.263906 54 128 33
-0.153534 -0.019819 0.278906 54 86 8
-0.140983 -0.026404 0.278906 54 129 33
-0.140983 -0.025818 0.293906 54 128 33
-0.151849 -0.019819 0.308906 47 77 9
-0.140983 -0.023079 0.308906 53 100 23
-0.140983 -0.019819 0.316230 53 100 23
-0.140983 -0.004819 0.149854 132 76 7
-0.140983 -0.012747 0.218906 123 76 7
-0.148225 -0.004819 0.233906 55 128 34
-0.140983 -0.012664 0.233906 67 76 13
-0.140983 -0.015080 0.323906 44 90 16
-0.146966 -0.004819 0.338906 50 116 28
-0.140983 -0.007400 0.338906 50 116 28
-0.140983 -0.004819 0.343441 50 116 28
-0.140983 0.010181 0.150687 132 76 7
-0.151519 0.010181 0.353906 48 107 21
-0.140983 0.003523 0.353906 51 124 33
-0.140983 0.010181 0.358260 51 124 33
-0.140983 0.025181 0.151266 133 76 7
-0.140983 0.025181 0.363398 49 114 33
-0.140983 0.040181 0.151529 133 76 7
-0.140983 0.040181 0.367377 54 128 33
-0.140983 0.055181 0.151614 133 76 7
-0.142058 0.055181 0.368906 54 128 33
-0.140983 0.052444 0.368906 54 128 33
-0.140983 0.055181 0.369385 54 128 33
-0.140983 0.070181 0.151614 133 76 7
-0.141675 0.070181 0.368906 54 128 33
-0.140983 0.070181 0.369194 54 128 33
-0.140983 0.085181 0.151529 133 76 7
-0.140983 0.071664 0.368906 54 128 33
-0.140983 0.085181 0.366972 54 129 33
-0.140983 0.100181 0.151151 132 76 7
-0.140983 0.100181 0.363102 55 127 32
-0.140983 0.115181 0.150818 133 76 7
-0.146236 0.115181 0.353906 54 124 32
-0.140983 0.115181 0.356121 54 124 32
-0.140983 0.130181 0.150245 133 76 7
-0.146308 0.130181 0.218906 92 76 7
-0.141877 0.130181 0.233906 60 93 33
-0.140983 0.130056 0.338906 54 117 23
-0.140983 0.130181 0.338766 54 117 23
-0.140983 0.118277 0.353906 54 124 32
-0.140983 0.145181 0.148874 133 76 7
-0.140983 0.132623 0.218906 92 76 7
-0.140983 0.145181 0.214807 126 76 7
-0.140983 0.130903 0.233906 60 93 33
-0.140983 0.143359 0.248906 62 77 10
-0.145178 0.145181 0.263906 56 77 12
-0.140983 0.145181 0.252362 62 77 10
-0.148217 0.145181 0.278906 54 95 25
-0.148561 0.145181 0.293906 55 76 7
-0.142302 0.145181 0.308906 54 82 8
-0.140983 0.137637 0.323906 54 128 33
-0.140983 0.145181 0.309795 54 82 8
-0.140983 0.160181 0.145369 130 76 7
-0.140983 0.160181 0.214464 132 76 7
-0.140983 0.147988 0.263906 56 77 12
-0.140983 0.149850 0.278906 54 95 25
-0.140983 0.148593 0.293906 54 85 10
-0.140983 0.145637 0.308906 54 82 8
-0.140983 0.172120 0.143906 133 76 7
-0.140983 0.175181 0.143579 133 76 7
-0.140983 0.175181 0.214406 133 76 7
-0.140983 0.190181 0.135861 133 76 7
-0.140983 0.190181 0.214475 133 76 7
-0.140983 0.205181 0.137646 133 76 7
-0.140983 0.205181 0.214420 133 76 7
-0.140983 0.220181 0.137383 133 76 7
-0.140983 0.220181 0.214845 133 76 7
-0.140983 0.235181 0.136447 133 76 7
-0.140983 0.235181 0.215507 133 76 7
-0.140983 0.250181 0.136223 133 76 8
-0.140983 0.250181 0.216779 133 76 7
-0.154463 0.265181 0.143906 133 76 24
-0.140983 0.265181 0.139473 133 77 12
-0.140983 0.265181 0.215367 133 76 12
-0.140983 0.271689 0.143906 133 77 12
-0.141105 0.280181 0.158906 133 76 35
-0.140983 0.280083 0.158906 133 76 35
-0.140983 0.276836 0.173906 133 76 7
-0.140983 0.279084 0.188906 133 76 8
-0.154097 0.280181 0.203906 133 76 8
-0.140983 0.280181 0.190569 133 76 8
-0.140983 0.280181 0.208353 133 76 7
-0.148437 0.295181 0.158906 135 82 37
-0.140983 0.280195 0.158906 133 76 35
-0.140983 0.295181 0.151452 135 82 37
-0.140983 0.295181 0.170157 133 76 9
-0.140983 0.285280 0.203906 133 76 7
-0.140983 0.302635 0.158906 135 82 37
-0.133381 -0.289819 0.143906 134 81 29
-0.125983 -0.297217 0.143906 134 81 29
-0.125983 -0.289819 0.136508 134 81 29
-0.125983 -0.295910 0.158906 133 85 37
-0.126295 -0.289819 0.173906 133 76 9
-0.125983 -0.289909 0.173906 133 76 9
-0.125983 -0.289819 0.188490 133 76 7
-0.129279 -0.289819 0.203906 132 76 9
-0.125983 -0.291331 0.203906 132 76 9
-0.125983 -0.289819 0.188935 133 76 7
-0.125983 -0.289819 0.205831 132 76 9
-0.136068 -0.274819 0.143906 133 77 31
-0.125983 -0.274819 0.140895 133 76 25
-0.125983 -0.289811 0.188906 133 76 7
-0.125983 -0.274819 0.214371 133 76 19
-0.125983 -0.259819 0.136561 133 76 7
-0.125983 -0.259819 0.217589 133 76 7
-0.125983 -0.244819 0.136357 133 76 9
-0.125983 -0.244819 0.215715 133 76 7
-0.125983 -0.229819 0.137700 133 76 7
-0.125983 -0.229819 0.214729 133 76 7
-0.125983 -0.214819 0.136958 133 76 7
-0.125983 -0.214819 0.214529 133 76 7
-0.125983 -0.199819 0.135999 133 76 7
-0.125983 -0.199819 0.214544 133 76 7
-0.125983 -0.184819 0.143474 133 76 7
-0.125983 -0.184819 0.214523 133 76 7
-0.125983 -0.169819 0.143474 133 76 7
-0.125983 -0.169819 0.214918 123 75 7
-0.125983 -0.154819 0.143708 133 76 7
-0.125983 -0.154819 0.215361 133 76 7
-0.125983 -0.139819 0.143716 133 76 7
-0.125983 -0.139819 0.215407 133 76 7
-0.125983 -0.124819 0.143716 133 76 7
-0.125983 -0.124819 0.215406 131 74 7
-0.125983 -0.109819 0.143718 133 76 7
-0.125983 -0.109819 0.215446 131 74 7
-0.125983 -0.094819 0.143718 133 76 7
-0.125983 -0.094819 0.215530 131 74 7
-0.125983 -0.082477 0.143906 133 76 7
-0.125983 -0.079819 0.143957 133 76 7
-0.125983 -0.079819 0.215525 131 74 7
-0.125983 -0.064819 0.143957 133 76 7
-0.125983 -0.064819 0.215444 130 74 7
-0.125983 -0.049819 0.144236 133 76 7
-0.125983 -0.049819 0.214569 131 74 7
-0.125983 -0.034819 0.144236 133 76 7
-0.125983 -0.034819 0.214640 132 76 7
-0.125983 -0.019819 0.148854 132 76 7
-0.125983 -0.019819 0.215762 119 76 8
-0.125983 -0.025586 0.248906 54 127 33
-0.125983 -0.019819 0.240422 64 77 22
-0.125983 -0.026700 0.263906 54 128 33
-0.125983 -0.026897 0.278906 54 128 33
-0.125983 -0.026308 0.293906 54 128 32
-0.125983 -0.024802 0.308906 54 128 32
-0.125983 -0.019819 0.321371 44 102 27
-0.125983 -0.004819 0.150062 132 76 8
-0.125983 -0.015897 0.218906 119 76 8
-0.125983 -0.014078 0.233906 64 77 22
-0.125983 -0.018035 0.323906 44 102 27
-0.125983 -0.010597 0.338906 54 128 33
-0.125983 -0.004819 0.348265 44 110 30
-0.125983 0.010181 0.151245 133 76 8
-0.125983 0.000768 0.353906 44 110 30
-0.125983 0.010181 0.359725 55 128 33
-0.125983 0.025181 0.151404 133 76 8
-0.125983 0.025181 0.365376 47 117 33
-0.125983 0.040181 0.151493 132 76 7
-0.132046 0.040181 0.368906 54 128 33
-0.125983 0.036794 0.368906 54 128 33
-0.125983 0.040181 0.370322 54 128 33
-0.125983 0.055181 0.151589 132 76 7
-0.125983 0.055181 0.373709 54 128 33
-0.125983 0.070181 0.151477 132 76 7
-0.125983 0.070181 0.373243 54 128 32
-0.125983 0.085181 0.151477 133 76 7
-0.128900 0.085181 0.368906 54 128 33
-0.125983 0.085181 0.369510 54 128 33
-0.125983 0.100181 0.151174 133 76 7
-0.125983 0.087075 0.368906 54 128 33
-0.125983 0.100181 0.365454 54 129 33
-0.125983 0.115181 0.151016 133 76 7
-0.125983 0.115181 0.358997 54 129 33
-0.125983 0.130181 0.150170 132 76 7
-0.140606 0.130181 0.338906 54 117 23
-0.125983 0.122002 0.353906 54 129 33
-0.125983 0.130181 0.344359 54 129 33
-0.125983 0.145181 0.149016 133 76 7
-0.125983 0.137642 0.218906 69 77 9
-0.125983 0.145181 0.215119 124 76 7
-0.125983 0.137016 0.233906 55 129 34
-0.135302 0.145181 0.248906 62 77 10
-0.125983 0.145181 0.247050 55 77 23
-0.125983 0.138738 0.323906 54 86 9
-0.125983 0.145181 0.312653 54 102 25
-0.125983 0.133061 0.338906 54 129 33
-0.125983 0.160181 0.145462 132 76 7
-0.125983 0.160181 0.214505 133 76 7
-0.125983 0.146708 0.248906 55 77 23
-0.125983 0.151093 0.263906 54 126 33
-0.125983 0.151205 0.278906 54 128 33
-0.125983 0.150613 0.293906 54 129 33
-0.125983 0.147246 0.308906 54 102 25
-0.125983 0.171599 0.143906 133 76 7
-0.125983 0.175181 0.143474 133 76 7
-0.125983 0.175181 0.214443 132 76 7
-0.125983 0.190181 0.143238 133 76 7
-0.125983 0.190181 0.214499 133 76 7
-0.125983 0.205181 0.135730 133 76 7
-0.125983 0.205181 0.214430 133 76 7
-0.125983 0.220181 0.137262 133 76 7
-0.125983 0.220181 0.214479 132 76 7
-0.125983 0.235181 0.137479 133 76 7
-0.125983 0.235181 0.215104 133 76 7
-0.125983 0.250181 0.136417 133 76 7
-0.125983 0.250181 0.215887 133 76 7
-0.125983 0.265181 0.137148 133 76 7
-0.125983 0.265181 0.217893 133 76 7
-0.125983 0.279757 0.143906 133 77 31
-0.140775 0.280181 0.158906 133 76 35
-0.125983 0.280181 0.145291 133 77 31
-0.134741 0.280181 0.173906 133 76 7
-0.138653 0.280181 0.188906 133 76 8
-0.125983 0.280181 0.211907 133 76 22
-0.125983 0.295181 0.151858 134 85 37
-0.125983 0.286265 0.173906 133 76 7
-0.125983 0.295181 0.172249 133 76 11
-0.125983 0.286333 0.188906 133 76 7
-0.125983 0.293065 0.203906 133 76 9
-0.125983 0.302230 0.158906 134 85 37
-0.110983 -0.297125 0.143906 133 77 8
-0.110983 -0.289819 0.136600 133 77 8
-0.110983 -0.292459 0.158906 133 76 8
-0.110983 -0.292834 0.173906 133 76 8
-0.125975 -0.289819 0.188906 133 76 7
-0.110983 -0.294294 0.188906 133 76 9
-0.110983 -0.296040 0.203906 133 76 7
-0.110983 -0.289819 0.212906 133 77 23
-0.110983 -0.274819 0.137219 133 76 7
-0.110983 -0.274819 0.217516 133 76 7
-0.110983 -0.259819 0.136408 133 76 7
-0.110983 -0.259819 0.215961 133 76 7
-0.110983 -0.244819 0.137826 133 76 7
-0.110983 -0.244819 0.215067 133 76 7
-0.110983 -0.229819 0.137707 133 76 7
-0.110983 -0.229819 0.214518 132 76 7
-0.110983 -0.214819 0.136003 133 76 7
-0.110983 -0.214819 0.214515 133 76 7
-0.110983 -0.199819 0.143473 133 76 7
-0.110983 -0.199819 0.214465 133 76 7
-0.110983 -0.184819 0.143478 133 76 7
-0.110983 -0.184819 0.214477 133 76 7
-0.110983 -0.169819 0.143715 133 76 7
-0.110983 -0.169819 0.214671 119 73 7
-0.110983 -0.154819 0.143709 133 76 7
-0.110983 -0.154819 0.215409 133 76 7
-0.113217 -0.139819 0.143906 133 76 7
-0.110983 -0.141977 0.143906 133 76 7
-0.110983 -0.139819 0.143948 133 76 7
-0.110983 -0.139819 0.215462 133 76 7
-0.113549 -0.124819 0.143906 133 76 7
-0.110983 -0.124819 0.143956 133 76 7
-0.110983 -0.124819 0.215486 131 74 7
-0.113217 -0.109819 0.143906 133 76 7
-0.110983 -0.109819 0.143948 133 76 7
-0.110983 -0.109819 0.215524 131 74 7
-0.113217 -0.094819 0.143906 133 76 7
-0.110983 -0.094819 0.143948 133 76 7
-0.110983 -0.094819 0.215521 131 74 7
-0.110983 -0.079819 0.143948 133 76 7
-0.110983 -0.079819 0.215586 128 74 7
-0.110983 -0.064819 0.143948 133 76 7
-0.110983 -0.064819 0.215518 127 74 7
-0.110983 -0.049819 0.144230 133 76 7
-0.110983 -0.049819 0.214566 131 74 7
-0.110983 -0.034819 0.144230 133 76 7
-0.110983 -0.034819 0.214713 133 76 7
-0.110983 -0.019819 0.148834 132 76 7
-0.110983 -0.019819 0.215710 117 76 9
-0.110983 -0.025543 0.248906 54 129 33
-0.110983 -0.019819 0.240927 64 80 28
-0.110983 -0.026322 0.263906 54 127 33
-0.110983 -0.026671 0.278906 54 128 33
-0.110983 -0.026190 0.293906 54 128 33
-0.110983 -0.024758 0.308906 54 127 33
-0.115817 -0.019819 0.323906 52 121 33
-0.110983 -0.020465 0.323906 52 121 33
-0.110983 -0.019819 0.325124 52 121 33
-0.110983 -0.004819 0.150609 133 76 8
-0.110983 -0.014477 0.218906 117 76 9
-0.110983 -0.013727 0.233906 64 80 28
-0.110983 -0.010797 0.338906 54 128 33
-0.110983 -0.004819 0.350351 43 110 35
-0.110983 0.010181 0.151123 133 76 8
-0.110983 -0.001411 0.353906 43 110 35
-0.110983 0.010181 0.360133 55 128 33
-0.110983 0.025181 0.151584 132 76 7
-0.110983 0.025181 0.365150 47 117 32
-0.110983 0.040181 0.152075 133 76 7
-0.110983 0.034307 0.368906 54 128 33
-0.110983 0.040181 0.371969 54 128 33
-0.110983 0.055181 0.152075 133 76 7
-0.118799 0.055181 0.248906 54 128 33
-0.110983 0.047550 0.248906 54 128 32
-0.110983 0.055181 0.241266 55 129 33
-0.118733 0.055181 0.263906 54 128 32
-0.110983 0.047589 0.263906 54 129 33
-0.118564 0.055181 0.278906 54 129 33
-0.110983 0.047537 0.278906 54 128 32
-0.118675 0.055181 0.293906 54 128 32
-0.110983 0.047436 0.293906 54 128 33
-0.110983 0.055181 0.301679 54 128 32
-0.110983 0.055181 0.374024 54 128 33
-0.110983 0.070181 0.151964 133 76 7
-0.118649 0.070181 0.248906 54 129 33
-0.110983 0.070181 0.241266 55 129 33
-0.118607 0.070181 0.263906 54 129 33
-0.118589 0.070181 0.278906 54 128 33
-0.118714 0.070181 0.293906 54 128 32
-0.110983 0.070181 0.301703 54 128 32
-0.110983 0.070181 0.373623 54 128 33
-0.110983 0.085181 0.151964 133 76 7
-0.110983 0.077981 0.248906 54 128 32
-0.110983 0.077947 0.263906 54 128 33
-0.110983 0.078006 0.278906 54 128 33
-0.110983 0.078122 0.293906 54 128 32
-0.110983 0.085181 0.369778 54 128 33
-0.110983 0.100181 0.151585 131 76 7
-0.110983 0.087653 0.368906 54 128 33
-0.110983 0.100181 0.365155 54 128 33
-0.110983 0.115181 0.151091 133 76 7
-0.110983 0.115181 0.358681 54 128 33
-0.110983 0.130181 0.150608 133 76 7
-0.112585 0.130181 0.218906 68 77 9
-0.110983 0.129767 0.218906 68 77 9
-0.110983 0.130181 0.218364 68 77 9
-0.110983 0.130181 0.219409 68 77 9
-0.110983 0.122515 0.353906 54 128 33
-0.110983 0.130181 0.344620 54 128 33
-0.110983 0.145181 0.149388 132 76 7
-0.110983 0.145181 0.214930 122 76 9
-0.110983 0.136996 0.233906 55 129 34
-0.111380 0.145181 0.248906 55 84 33
-0.110983 0.145126 0.248906 55 84 33
-0.110983 0.145181 0.248988 55 84 33
-0.110983 0.138918 0.323906 54 87 10
-0.110983 0.145181 0.313678 54 118 32
-0.110983 0.132611 0.338906 54 128 33
-0.110983 0.160181 0.145460 131 76 7
-0.110983 0.160181 0.214414 133 76 7
-0.110983 0.150820 0.263906 55 128 33
-0.110983 0.151014 0.278906 54 128 33
-0.110983 0.150334 0.293906 54 128 33
-0.110983 0.147665 0.308906 54 118 32
-0.110983 0.173274 0.143906 133 76 7
-0.110983 0.175181 0.143707 133 76 7
-0.110983 0.175181 0.214421 133 76 7
-0.110983 0.190181 0.143473 133 76 7
-0.110983 0.190181 0.214441 133 76 7
-0.110983 0.205181 0.138978 133 76 7
-0.110983 0.205181 0.214413 133 76 7
-0.110983 0.220181 0.136805 133 76 7
-0.110983 0.220181 0.214424 132 76 7
-0.110983 0.235181 0.137756 133 76 7
-0.110983 0.235181 0.214477 133 76 7
-0.110983 0.250181 0.137298 133 76 7
-0.110983 0.250181 0.215247 133 76 7
-0.110983 0.265181 0.136300 133 76 8
-0.110983 0.265181 0.216683 133 76 7
-0.125588 0.280181 0.143906 133 77 31
-0.110983 0.280181 0.139660 133 77 25
-0.110983 0.280181 0.215367 133 76 15
-0.118358 0.295181 0.143906 134 85 32
-0.110983 0.295181 0.136532 134 85 32
-0.111523 0.295181 0.173906 133 76 8
-0.115600 0.295181 0.188906 133 76 11
-0.122505 0.295181 0.203906 133 76 9
-0.110983 0.295181 0.208031 133 77 8
-0.110983 0.302555 0.143906 134 85 32
-0.110983 0.301711 0.158906 133 82 29
-0.110983 0.295296 0.173906 133 76 8
-0.110983 0.296551 0.188906 133 76 11
-0.110983 0.298224 0.203906 133 77 8
-0.103316 -0.304819 0.158906 137 102 74
-0.095983 -0.312152 0.158906 137 102 74
-0.095983 -0.304819 0.151573 137 102 74
-0.095983 -0.304819 0.170735 133 76 8
-0.095983 -0.297063 0.143906 133 76 12
-0.095983 -0.289819 0.136662 133 76 12
-0.095983 -0.296467 0.173906 133 76 8
-0.095983 -0.296584 0.188906 133 76 7
-0.095983 -0.299452 0.203906 132 76 8
-0.095983 -0.289819 0.216194 133 77 23
-0.095983 -0.274819 0.136924 133 76 7
-0.095983 -0.274819 0.217768 133 76 7
-0.095983 -0.259819 0.137951 133 76 7
-0.095983 -0.259819 0.215444 133 76 7
-0.095983 -0.244819 0.137956 133 76 7
-0.095983 -0.244819 0.214522 133 76 7
-0.095983 -0.229819 0.137580 133 76 7
-0.095983 -0.229819 0.214518 133 76 7
-0.095983 -0.214819 0.136969 133 76 7
-0.095983 -0.214819 0.214529 133 76 7
-0.098652 -0.199819 0.143906 133 76 7
-0.095983 -0.200109 0.143906 133 76 7
-0.095983 -0.199819 0.144022 133 76 7
-0.095983 -0.199819 0.214471 132 76 7
-0.098652 -0.184819 0.143906 133 76 7
-0.095983 -0.184819 0.144022 133 76 7
-0.095983 -0.184819 0.214505 133 76 7
-0.100903 -0.169819 0.143906 133 76 7
-0.095983 -0.169819 0.144022 133 76 7
-0.095983 -0.169819 0.214572 124 75 7
-0.100802 -0.154819 0.143906 133 76 7
-0.095983 -0.154819 0.144022 133 76 7
-0.095983 -0.154819 0.215499 133 76 7
-0.095983 -0.139819 0.144302 133 76 7
-0.095983 -0.139819 0.215588 133 76 7
-0.095983 -0.124819 0.144302 133 76 7
-0.095983 -0.124819 0.215530 131 74 7
-0.095983 -0.109819 0.144302 133 76 7
-0.095983 -0.109819 0.215544 131 74 7
-0.095983 -0.094819 0.144302 133 76 7
-0.095983 -0.094819 0.215558 131 74 7
-0.095983 -0.079819 0.144302 133 76 7
-0.095983 -0.079819 0.215594 130 74 7
-0.095983 -0.064819 0.144302 133 76 7
-0.095983 -0.064819 0.215575 131 74 7
-0.095983 -0.049819 0.144566 133 76 7
-0.095983 -0.049819 0.214527 130 74 7
-0.095983 -0.034819 0.144566 133 76 7
-0.095983 -0.034819 0.214612 131 76 7
-0.095983 -0.019819 0.148813 132 76 7
-0.095983 -0.019819 0.215627 120 76 7
-0.095983 -0.024266 0.248906 54 127 33
-0.095983 -0.019819 0.243055 54 127 33
-0.095983 -0.025070 0.263906 54 127 33
-0.095983 -0.025855 0.278906 54 128 33
-0.095983 -0.025430 0.293906 54 128 33
-0.095983 -0.023783 0.308906 54 128 33
-0.106226 -0.019819 0.323906 52 121 33
-0.095983 -0.019819 0.320521 54 111 23
-0.095983 -0.004819 0.150159 132 76 8
-0.095983 -0.007751 0.218906 64 76 10
-0.095983 -0.012248 0.233906 55 128 34
-0.095983 -0.017596 0.323906 54 111 23
-0.095983 -0.009582 0.338906 54 128 33
-0.095983 -0.004819 0.347151 41 105 31
-0.095983 0.010181 0.150927 133 76 8
-0.095983 0.001869 0.353906 41 105 31
-0.095983 0.010181 0.358614 54 128 33
-0.095983 0.025181 0.151302 133 76 8
-0.095983 0.025181 0.363280 46 112 33
-0.095983 0.040181 0.151480 133 76 7
-0.098610 0.040181 0.368906 53 118 33
-0.095983 0.040181 0.368274 53 118 33
-0.095983 0.055181 0.151579 132 76 7
-0.103273 0.055181 0.248906 54 128 32
-0.103403 0.055181 0.263906 55 128 32
-0.103468 0.055181 0.278906 54 129 33
-0.103354 0.055181 0.293906 54 128 32
-0.095983 0.042387 0.368906 53 118 33
-0.095983 0.055181 0.372379 54 128 33
-0.095983 0.070181 0.151469 133 76 7
-0.103372 0.070181 0.248906 54 129 33
-0.103433 0.070181 0.263906 54 128 32
-0.103422 0.070181 0.278906 54 128 32
-0.103321 0.070181 0.293906 54 128 32
-0.095983 0.070181 0.371905 54 128 32
-0.095983 0.085181 0.151370 133 76 7
-0.105358 0.085181 0.368906 54 128 33
-0.095983 0.080537 0.368906 54 128 33
-0.095983 0.085181 0.367511 54 128 33
-0.095983 0.100181 0.151192 133 76 7
-0.095983 0.100181 0.362889 51 104 33
-0.095983 0.115181 0.150881 133 76 7
-0.095983 0.115181 0.356336 54 124 32
-0.095983 0.130181 0.150517 133 76 7
-0.095983 0.128433 0.218906 72 76 9
-0.095983 0.130181 0.217018 72 76 9
-0.095983 0.130181 0.221123 72 76 9
-0.095983 0.118883 0.353906 54 124 32
-0.095983 0.130181 0.339839 54 120 29
-0.095983 0.145181 0.149147 133 76 7
-0.095983 0.145181 0.214828 126 76 7
-0.095983 0.135751 0.233906 55 129 34
-0.095983 0.139470 0.248906 56 78 20
-0.095983 0.145181 0.256616 54 126 33
-0.097246 0.145181 0.308906 54 104 22
-0.095983 0.144796 0.308906 54 104 22
-0.095983 0.145181 0.308210 54 104 22
-0.095983 0.137846 0.323906 54 85 10
-0.095983 0.130615 0.338906 54 120 29
-0.095983 0.160181 0.145545 131 76 7
-0.095983 0.160181 0.214495 132 76 7
-0.095983 0.149652 0.263906 54 126 33
-0.095983 0.150033 0.278906 54 128 33
-0.095983 0.149309 0.293906 54 128 33
-0.100802 0.175181 0.143906 133 76 7
-0.095983 0.175181 0.144022 133 76 7
-0.095983 0.175181 0.214504 133 76 7
-0.098652 0.190181 0.143906 133 76 7
-0.095983 0.190181 0.144022 133 76 7
-0.095983 0.190181 0.214453 132 76 7
-0.096352 0.205181 0.143906 133 76 7
-0.095983 0.205181 0.144022 133 76 7
-0.095983 0.205181 0.214443 131 76 7
-0.095983 0.205419 0.143906 133 76 7
-0.095983 0.220181 0.134729 133 76 7
-0.095983 0.220181 0.214444 132 76 7
-0.095983 0.235181 0.137964 133 76 7
-0.095983 0.235181 0.214432 133 76 7
-0.095983 0.250181 0.138186 133 76 7
-0.095983 0.250181 0.214487 133 76 7
-0.095983 0.265181 0.137172 133 76 7
-0.095983 0.265181 0.215707 133 76 7
-0.095983 0.280181 0.135773 133 77 15
-0.096060 0.280181 0.218906 133 76 7
-0.095983 0.280126 0.218906 133 76 7
-0.095983 0.280181 0.218916 133 76 7
-0.095983 0.295181 0.136628 133 80 22
-0.095983 0.280219 0.218906 133 76 7
-0.095983 0.295181 0.212850 133 76 19
-0.095983 0.302459 0.143906 133 80 22
-0.095983 0.297795 0.158906 133 76 8
-0.095983 0.298529 0.173906 133 76 8
-0.095983 0.298300 0.188906 133 76 9
-0.095983 0.302559 0.203906 133 76 7
-0.088417 -0.304819 0.143906 136 96 60
-0.080983 -0.312252 0.143906 136 96 60
-0.080983 -0.304819 0.136472 136 96 60
-0.080983 -0.310350 0.158906 134 89 46
-0.080983 -0.304819 0.171034 133 76 11
-0.080983 -0.289819 0.138377 133 77 31
-0.080983 -0.298732 0.173906 133 76 11
-0.080983 -0.300277 0.188906 133 76 10
-0.080983 -0.302909 0.203906 133 76 7
-0.080983 -0.289819 0.217729 133 76 14
-0.080983 -0.274819 0.136885 133 76 7
-0.080983 -0.274819 0.216151 133 76 7
-0.080983 -0.259819 0.138028 133 76 7
-0.080983 -0.259819 0.214544 133 76 7
-0.080983 -0.244819 0.137823 133 76 7
-0.080983 -0.244819 0.214494 133 76 7
-0.080983 -0.229819 0.136297 133 76 7
-0.080983 -0.229819 0.214423 132 76 7
-0.080983 -0.214819 0.143020 133 76 7
-0.080983 -0.214819 0.214404 133 76 7
-0.091865 -0.199819 0.143906 133 76 7
-0.080983 -0.199819 0.143661 133 76 7
-0.080983 -0.199819 0.214374 133 76 7
-0.091865 -0.184819 0.143906 133 76 7
-0.080983 -0.184819 0.143664 133 76 7
-0.080983 -0.184819 0.214434 133 76 7
-0.083155 -0.169819 0.143906 133 76 7
-0.080983 -0.169819 0.143890 133 76 7
-0.080983 -0.169819 0.214455 132 76 7
-0.083155 -0.154819 0.143906 133 76 7
-0.080983 -0.154819 0.143891 133 76 7
-0.080983 -0.154819 0.215443 129 76 7
-0.081682 -0.139819 0.143906 133 76 7
-0.080983 -0.139819 0.143891 133 76 7
-0.080983 -0.139819 0.215476 132 76 7
-0.081682 -0.124819 0.143906 133 76 7
-0.080983 -0.124819 0.143891 133 76 7
-0.080983 -0.124819 0.215452 131 74 7
-0.081682 -0.109819 0.143906 133 76 7
-0.080983 -0.109819 0.143891 133 76 7
-0.080983 -0.109819 0.215463 131 74 7
-0.081682 -0.094819 0.143906 133 76 7
-0.080983 -0.094819 0.143891 133 76 7
-0.080983 -0.094819 0.215479 129 74 7
-0.081682 -0.079819 0.143906 133 76 7
-0.080983 -0.079819 0.143891 133 76 7
-0.080983 -0.079819 0.215467 131 74 7
-0.081682 -0.064819 0.143906 133 76 7
-0.080983 -0.064819 0.143891 133 76 7
-0.080983 -0.064819 0.215461 127 74 7
-0.080983 -0.063776 0.143906 133 76 7
-0.080983 -0.049819 0.144168 133 76 7
-0.080983 -0.049819 0.214480 131 74 7
-0.080983 -0.034819 0.144168 133 76 7
-0.080983 -0.034819 0.214562 132 76 7
-0.080983 -0.019819 0.147942 133 76 7
-0.080983 -0.019819 0.215162 127 76 7
-0.089181 -0.019819 0.248906 54 127 33
-0.080983 -0.023753 0.263906 54 127 33
-0.080983 -0.019819 0.257535 54 127 33
-0.080983 -0.024356 0.278906 54 128 32
-0.080983 -0.023784 0.293906 54 128 32
-0.080983 -0.021176 0.308906 54 113 27
-0.080983 -0.019819 0.312872 54 113 27
-0.080983 -0.004819 0.149353 133 76 7
-0.091227 -0.004819 0.218906 64 76 10
-0.080983 -0.004819 0.217063 72 76 9
-0.080983 -0.009737 0.233906 55 127 33
-0.080983 -0.004819 0.221592 72 76 9
-0.080983 -0.012913 0.248906 56 77 13
-0.080983 -0.013631 0.323906 54 100 11
-0.081244 -0.004819 0.338906 54 116 24
-0.080983 -0.004819 0.338739 54 116 24
-0.080983 0.010181 0.150193 132 76 8
-0.080983 -0.002689 0.218906 72 76 9
-0.080983 -0.004668 0.338906 54 116 24
-0.080983 0.008627 0.353906 54 119 26
-0.080983 0.010181 0.354944 54 119 26
-0.080983 0.025181 0.150930 133 76 8
-0.080983 0.025181 0.360830 54 128 33
-0.080983 0.040181 0.151063 133 76 8
-0.080983 0.040181 0.364001 46 108 33
-0.080983 0.055181 0.151136 133 76 8
-0.087957 0.055181 0.368906 46 112 33
-0.080983 0.055181 0.365847 46 112 33
-0.080983 0.070181 0.151023 133 76 7
-0.088939 0.070181 0.368906 54 128 32
-0.080983 0.070181 0.365480 47 111 33
-0.080983 0.085181 0.150950 133 76 7
-0.080983 0.085181 0.363305 54 103 32
-0.080983 0.100181 0.150818 133 76 7
-0.080983 0.100181 0.359487 54 128 33
-0.080983 0.115181 0.150259 133 76 7
-0.087367 0.115181 0.353906 54 112 22
-0.080983 0.111811 0.353906 54 112 22
-0.080983 0.115181 0.350826 54 112 22
-0.080983 0.130181 0.149450 133 76 7
-0.080983 0.125261 0.218906 110 76 9
-0.080983 0.130181 0.215633 110 76 9
-0.083243 0.130181 0.233906 55 91 32
-0.080983 0.128281 0.233906 55 91 32
-0.080983 0.130181 0.236276 55 91 32
-0.094373 0.130181 0.338906 54 120 29
-0.080983 0.124634 0.338906 54 110 17
-0.080983 0.130181 0.332526 54 110 17
-0.080983 0.145181 0.148271 133 76 7
-0.080983 0.145181 0.214751 130 76 7
-0.080983 0.136090 0.248906 54 127 33
-0.084941 0.145181 0.263906 55 78 10
-0.080983 0.142147 0.263906 55 78 10
-0.080983 0.145181 0.273275 54 99 25
-0.082558 0.145181 0.293906 54 95 15
-0.080983 0.144197 0.293906 54 95 15
-0.080983 0.145181 0.289297 54 95 15
-0.080983 0.138935 0.308906 55 77 7
-0.080983 0.135069 0.323906 54 128 33
-0.080983 0.160181 0.145439 131 76 7
-0.080983 0.160181 0.214451 133 76 7
-0.080983 0.146442 0.278906 54 99 25
-0.083154 0.175181 0.143906 133 76 7
-0.080983 0.175005 0.143906 133 76 7
-0.080983 0.175181 0.143890 133 76 7
-0.080983 0.175181 0.214378 133 76 7
-0.091865 0.190181 0.143906 133 76 7
-0.080983 0.190181 0.143664 133 76 7
-0.080983 0.190181 0.214369 133 76 7
-0.091865 0.205181 0.143906 133 76 7
-0.080983 0.205181 0.143661 133 76 7
-0.080983 0.205181 0.214362 133 76 7
-0.080983 0.220181 0.137483 133 76 7
-0.080983 0.220181 0.214356 133 76 7
-0.080983 0.235181 0.137515 133 76 7
-0.080983 0.235181 0.214357 133 76 7
-0.080983 0.250181 0.137891 133 76 7
-0.080983 0.250181 0.214409 133 76 7
-0.080983 0.265181 0.138552 133 76 7
-0.080983 0.265181 0.214601 133 76 7
-0.080983 0.280181 0.135813 133 76 9
-0.095821 0.280181 0.218906 133 76 7
-0.080983 0.280181 0.217535 133 76 7
-0.080983 0.295181 0.136661 133 77 11
-0.080983 0.295181 0.215906 133 76 21
-0.080983 0.302427 0.143906 133 77 11
-0.080983 0.297911 0.158906 133 76 7
-0.080983 0.300105 0.173906 133 76 7
-0.080983 0.300510 0.188906 133 76 7
-0.080983 0.305442 0.203906 133 76 8
-0.065983 -0.312162 0.143906 133 87 40
-0.065983 -0.304819 0.136563 133 87 40
-0.065983 -0.306222 0.158906 133 76 16
-0.065983 -0.304819 0.170679 133 76 9
-0.075891 -0.304819 0.203906 133 76 7
-0.065983 -0.307341 0.203906 133 76 9
-0.065983 -0.304819 0.189762 133 76 10
-0.065983 -0.304819 0.207030 133 76 9
-0.072910 -0.289819 0.113906 137 105 85
-0.065983 -0.296746 0.113906 137 105 85
-0.065983 -0.289819 0.106979 137 105 85
-0.065983 -0.289819 0.126382 134 89 57
-0.065983 -0.289819 0.134416 134 89 57
-0.065983 -0.303615 0.173906 133 76 9
-0.065983 -0.304615 0.188906 133 76 10
-0.065983 -0.289819 0.218750 133 76 8
-0.065983 -0.281139 0.113906 133 76 7
-0.065983 -0.274819 0.138437 133 76 7
-0.065983 -0.274819 0.215294 133 76 7
-0.065983 -0.259819 0.138195 133 76 7
-0.065983 -0.259819 0.214505 132 76 7
-0.065983 -0.244819 0.137700 133 76 7
-0.065983 -0.244819 0.214424 133 76 7
-0.065983 -0.229819 0.135147 133 76 7
-0.065983 -0.229819 0.214461 133 76 7
-0.065983 -0.214819 0.143531 133 76 7
-0.065983 -0.214819 0.214403 133 76 7
-0.065983 -0.199819 0.143538 133 76 7
-0.065983 -0.199819 0.214381 133 76 7
-0.065983 -0.184819 0.143542 133 76 7
-0.065983 -0.184819 0.214407 133 76 7
-0.065983 -0.169819 0.143762 133 76 7
-0.065983 -0.169819 0.214454 132 76 7
-0.065983 -0.154819 0.143763 133 76 7
-0.065983 -0.154819 0.215457 133 76 7
-0.065983 -0.139819 0.143763 133 76 7
-0.065983 -0.139819 0.215552 133 76 7
-0.065983 -0.124819 0.143763 133 76 7
-0.065983 -0.124819 0.215476 128 74 7
-0.065983 -0.109819 0.143763 133 76 7
-0.065983 -0.109819 0.215584 131 74 7
-0.065983 -0.094819 0.143763 133 76 7
-0.065983 -0.094819 0.215562 131 74 7
-0.065983 -0.079819 0.143765 133 76 7
-0.065983 -0.079819 0.215556 131 74 7
-0.065983 -0.064819 0.143765 133 76 7
-0.065983 -0.064819 0.215542 130 74 7
-0.065983 -0.055091 0.143906 133 76 7
-0.065983 -0.049819 0.144006 133 76 7
-0.065983 -0.049819 0.214459 130 74 7
-0.065983 -0.034819 0.144006 133 76 7
-0.065983 -0.034819 0.214464 131 76 7
-0.065983 -0.019819 0.147177 133 76 7
-0.065983 -0.019819 0.214608 130 76 7
-0.073905 -0.019819 0.263906 54 127 33
-0.069880 -0.019819 0.278906 54 88 8
-0.071750 -0.019819 0.293906 54 86 7
-0.077948 -0.019819 0.308906 54 113 27
-0.065983 -0.004819 0.148297 133 76 7
-0.065983 -0.004819 0.215663 114 76 7
-0.073628 -0.004819 0.233906 55 127 33
-0.065983 -0.008855 0.248906 54 128 33
-0.065983 -0.004819 0.242339 54 128 33
-0.065983 -0.012390 0.263906 54 76 8
-0.065983 -0.016381 0.278906 54 88 8
-0.065983 -0.014983 0.293906 54 86 7
-0.065983 -0.011901 0.308906 54 128 33
-0.065983 -0.007184 0.323906 54 119 31
-0.065983 -0.004819 0.327800 54 119 31
-0.065983 0.010181 0.149269 133 76 7
-0.065983 0.009719 0.218906 62 76 9
-0.065983 0.002372 0.233906 61 77 14
-0.065983 0.004153 0.338906 54 128 33
-0.078337 0.010181 0.353906 54 119 26
-0.065983 0.010181 0.345827 54 128 33
-0.065983 0.025181 0.149555 132 76 7
-0.065983 0.021465 0.353906 54 117 24
-0.065983 0.025181 0.355584 54 117 24
-0.065983 0.040181 0.150043 133 76 7
-0.065983 0.040181 0.360003 54 128 33
-0.065983 0.055181 0.150288 133 76 8
-0.065983 0.055181 0.361334 54 128 32
-0.065983 0.070181 0.150160 133 76 7
-0.065983 0.070181 0.361173 54 128 32
-0.065983 0.085181 0.149909 132 76 7
-0.065983 0.085181 0.359230 54 126 32
-0.065983 0.100181 0.149614 133 76 7
-0.067544 0.100181 0.353906 49 106 22
-0.065983 0.098363 0.353906 49 106 22
-0.065983 0.100181 0.352580 49 106 22
-0.065983 0.115181 0.149116 132 76 7
-0.069903 0.115181 0.218906 71 76 9
-0.065983 0.111504 0.218906 71 76 9
-0.065983 0.115181 0.216396 71 76 9
-0.065983 0.115181 0.223160 71 76 9
-0.065983 0.115181 0.340138 54 113 26
-0.065983 0.130181 0.148368 132 76 7
-0.065983 0.130181 0.215214 127 76 7
-0.065983 0.119259 0.233906 55 129 34
-0.065983 0.130181 0.246684 55 115 33
-0.071011 0.130181 0.323906 54 101 14
-0.065983 0.126152 0.323906 54 101 14
-0.065983 0.130181 0.318456 54 101 14
-0.065983 0.116170 0.338906 54 113 26
-0.065983 0.145181 0.147481 133 76 7
-0.065983 0.145181 0.214587 131 76 7
-0.065983 0.132150 0.248906 55 115 33
-0.065983 0.134826 0.263906 54 129 33
-0.078851 0.145181 0.278906 54 99 25
-0.065983 0.136305 0.278906 54 128 32
-0.065983 0.135930 0.293906 54 128 33
-0.065983 0.134043 0.308906 54 127 33
-0.065983 0.160181 0.145595 132 76 7
-0.065983 0.160181 0.214460 133 76 7
-0.065983 0.173807 0.143906 133 76 7
-0.065983 0.175181 0.143762 133 76 7
-0.065983 0.175181 0.214420 133 76 7
-0.065983 0.190181 0.143542 133 76 7
-0.065983 0.190181 0.214354 132 76 7
-0.065983 0.205181 0.143535 133 76 7
-0.065983 0.205181 0.214394 133 76 7
-0.065983 0.220181 0.141610 133 76 7
-0.065983 0.220181 0.214343 133 76 7
-0.065983 0.235181 0.136491 133 76 7
-0.065983 0.235181 0.214352 133 76 7
-0.065983 0.250181 0.137802 133 76 7
-0.065983 0.250181 0.214314 132 76 7
-0.065983 0.265181 0.138349 133 76 7
-0.065983 0.265181 0.214437 133 76 7
-0.065983 0.280181 0.137532 133 76 7
-0.065983 0.280181 0.216141 133 76 7
-0.065983 0.295181 0.136668 133 76 8
-0.068033 0.295181 0.218906 133 76 14
-0.065983 0.293512 0.218906 133 76 14
-0.065983 0.295181 0.219098 133 76 14
-0.065983 0.302420 0.143906 133 76 8
-0.073342 0.310181 0.158906 137 105 83
-0.065983 0.310181 0.151547 137 105 83
-0.065983 0.302350 0.173906 133 76 7
-0.065983 0.310181 0.170386 133 76 9
-0.065983 0.302424 0.188906 133 76 7
-0.065983 0.308201 0.203906 132 76 8
-0.065983 0.295585 0.218906 133 76 14
-0.065983 0.317540 0.158906 137 105 83
-0.050983 -0.312074 0.143906 133 83 30
-0.050983 -0.304819 0.136651 133 83 30
-0.050983 -0.306760 0.158906 133 76 8
-0.059569 -0.304819 0.173906 133 76 9
-0.050983 -0.305942 0.173906 133 76 9
-0.065019 -0.304819 0.188906 133 76 10
-0.050983 -0.306541 0.188906 133 76 10
-0.050983 -0.309335 0.203906 133 76 8
-0.050983 -0.304819 0.210719 133 76 8
-0.055770 -0.289819 0.113906 134 86 49
-0.050983 -0.289819 0.135822 133 76 12
-0.050983 -0.289819 0.218274 133 76 7
-0.050983 -0.274819 0.138486 133 76 7
-0.050983 -0.274819 0.214685 133 76 7
-0.050983 -0.259819 0.138231 133 76 7
-0.050983 -0.259819 0.214413 133 76 7
-0.050983 -0.244819 0.137491 133 76 7
-0.050983 -0.244819 0.214399 133 76 7
-0.050983 -0.229819 0.137201 133 76 7
-0.050983 -0.229819 0.214399 133 76 7
-0.050983 -0.214819 0.143720 133 76 7
-0.050983 -0.214819 0.214359 133 76 7
-0.052560 -0.199819 0.143906 133 76 7
-0.050983 -0.202702 0.143906 133 76 7
-0.050983 -0.199819 0.143961 133 76 7
-0.050983 -0.199819 0.214397 133 76 7
-0.052560 -0.184819 0.143906 133 76 7
-0.050983 -0.184819 0.143961 133 76 7
-0.050983 -0.184819 0.214437 133 76 7
-0.054458 -0.169819 0.143906 133 76 7
-0.050983 -0.169819 0.143961 133 76 7
-0.050983 -0.169819 0.214450 132 76 7
-0.054458 -0.154819 0.143906 133 76 7
-0.050983 -0.154819 0.143963 133 76 7
-0.050983 -0.154819 0.215513 128 75 7
-0.054458 -0.139819 0.143906 133 76 7
-0.050983 -0.139819 0.143963 133 76 7
-0.050983 -0.139819 0.215640 132 75 7
-0.060712 -0.124819 0.143906 133 76 7
-0.050983 -0.124819 0.144249 133 76 7
-0.050983 -0.124819 0.215521 128 73 7
-0.060712 -0.109819 0.143906 133 76 7
-0.050983 -0.109819 0.144249 133 76 7
-0.050983 -0.109819 0.215610 127 73 7
-0.060712 -0.094819 0.143906 133 76 7
-0.050983 -0.094819 0.144249 133 76 7
-0.050983 -0.094819 0.215617 130 73 7
-0.060712 -0.079819 0.143906 133 76 7
-0.050983 -0.079819 0.144249 133 76 7
-0.050983 -0.079819 0.215595 130 73 7
-0.060712 -0.064819 0.143906 133 76 7
-0.050983 -0.064819 0.144250 133 76 7
-0.050983 -0.064819 0.215578 126 73 7
-0.050983 -0.049819 0.144237 133 76 7
-0.050983 -0.049819 0.214378 129 74 7
-0.050983 -0.034819 0.144237 133 76 7
-0.050983 -0.034819 0.214450 133 76 7
-0.050983 -0.019819 0.146689 133 76 7
-0.050983 -0.019819 0.214586 132 76 7
-0.050983 -0.004819 0.147707 133 76 7
-0.050983 -0.004819 0.214886 129 76 7
-0.059507 -0.004819 0.248906 54 128 33
-0.051640 -0.004819 0.263906 54 97 21
-0.050983 -0.007681 0.278906 54 126 33
-0.050983 -0.004819 0.265577 54 97 21
-0.050983 -0.007033 0.293906 54 118 33
-0.054152 -0.004819 0.308906 54 108 14
-0.050983 -0.004819 0.302093 54 108 14
-0.062452 -0.004819 0.323906 54 119 31
-0.050983 0.010181 0.148427 133 76 7
-0.065470 0.010181 0.218906 62 76 9
-0.050983 0.010181 0.215905 105 76 7
-0.055558 0.010181 0.233906 55 77 15
-0.050983 0.003752 0.248906 55 129 33
-0.050983 0.010181 0.239646 55 77 15
-0.050983 -0.004128 0.263906 54 97 21
-0.050983 -0.001609 0.308906 54 108 14
-0.050983 0.005473 0.323906 54 126 32
-0.059032 0.010181 0.338906 54 128 33
-0.050983 0.010181 0.329921 54 126 32
-0.050983 0.025181 0.148933 133 76 7
-0.051506 0.025181 0.218906 58 76 7
-0.050983 0.025181 0.218465 58 76 7
-0.050983 0.015629 0.233906 55 77 15
-0.050983 0.025181 0.219666 58 76 7
-0.050983 0.020205 0.338906 54 119 31
-0.062594 0.025181 0.353906 54 117 24
-0.050983 0.025181 0.343464 54 119 31
-0.050983 0.040181 0.149171 132 76 7
-0.050983 0.026098 0.218906 58 76 7
-0.054319 0.040181 0.353906 53 108 17
-0.050983 0.040181 0.350490 53 108 17
-0.050983 0.055181 0.149408 133 76 7
-0.052081 0.055181 0.353906 48 105 19
-0.050983 0.055181 0.352742 48 105 19
-0.050983 0.070181 0.149408 133 76 7
-0.053556 0.070181 0.353906 41 100 18
-0.050983 0.070181 0.351225 41 100 18
-0.050983 0.085181 0.149370 133 76 7
-0.057159 0.085181 0.353906 41 97 16
-0.050983 0.085181 0.347605 41 97 16
-0.050983 0.100181 0.148933 132 76 7
-0.053777 0.100181 0.218906 59 76 8
-0.050983 0.095571 0.218906 59 76 8
-0.050983 0.100181 0.217020 59 76 8
-0.050983 0.100181 0.222735 59 76 8
-0.052729 0.100181 0.338906 47 105 20
-0.050983 0.097745 0.338906 47 105 20
-0.050983 0.100181 0.336939 47 105 20
-0.050983 0.115181 0.148457 132 76 7
-0.050983 0.115181 0.215315 118 76 7
-0.059198 0.115181 0.233906 55 129 34
-0.050983 0.106212 0.233906 55 126 32
-0.050983 0.115181 0.243577 54 127 33
-0.052115 0.115181 0.323906 50 105 22
-0.050983 0.113876 0.323906 50 105 22
-0.050983 0.115181 0.322361 50 105 22
-0.064730 0.115181 0.338906 54 113 26
-0.050983 0.130181 0.147950 132 76 7
-0.050983 0.130181 0.214983 132 76 7
-0.063274 0.130181 0.248906 55 115 33
-0.050983 0.118780 0.248906 54 127 33
-0.057391 0.130181 0.263906 54 80 9
-0.050983 0.123751 0.263906 54 80 9
-0.055089 0.130181 0.278906 54 95 13
-0.050983 0.126065 0.278906 54 95 13
-0.056122 0.130181 0.293906 54 91 12
-0.050983 0.125088 0.293906 54 91 12
-0.059805 0.130181 0.308906 54 127 33
-0.050983 0.121721 0.308906 54 128 33
-0.050983 0.145181 0.146994 133 76 7
-0.050983 0.145181 0.214567 132 76 7
-0.050983 0.160181 0.145327 133 76 7
-0.050983 0.160181 0.214427 133 76 7
-0.054459 0.175181 0.143906 133 76 7
-0.050983 0.175181 0.143961 133 76 7
-0.050983 0.175181 0.214388 133 76 7
-0.052561 0.190181 0.143906 133 76 7
-0.050983 0.190181 0.143961 133 76 7
-0.050983 0.190181 0.214362 133 76 7
-0.052561 0.205181 0.143906 133 76 7
-0.050983 0.205181 0.143961 133 76 7
-0.050983 0.205181 0.214333 133 76 7
-0.050983 0.208065 0.143906 133 76 7
-0.050983 0.220181 0.143718 133 76 7
-0.050983 0.220181 0.214284 132 76 7
-0.050983 0.235181 0.135034 133 76 7
-0.050983 0.235181 0.214317 133 76 7
-0.050983 0.250181 0.137970 133 76 7
-0.050983 0.250181 0.214348 133 76 7
-0.050983 0.265181 0.138222 133 76 7
-0.050983 0.265181 0.214381 133 76 7
-0.050983 0.280181 0.138941 133 76 7
-0.050983 0.280181 0.214827 133 76 7
-0.057580 0.295181 0.113906 139 112 97
-0.050983 0.286801 0.113906 133 76 7
-0.050983 0.295181 0.107310 139 112 97
-0.057228 0.295181 0.128906 137 107 89
-0.050983 0.285401 0.128906 133 76 7
-0.050983 0.290836 0.218906 133 76 8
-0.050983 0.295181 0.219921 133 76 8
-0.050983 0.301777 0.113906 139 112 97
-0.050983 0.301425 0.128906 137 107 89
-0.050983 0.300855 0.143906 133 76 32
-0.050983 0.310181 0.157621 134 93 62
-0.050983 0.303350 0.173906 133 76 11
-0.050983 0.310181 0.162944 134 93 62
-0.050983 0.302531 0.188906 133 76 7
-0.051698 0.310181 0.203906 132 76 7
-0.050983 0.310181 0.203803 132 76 7
-0.050983 0.297279 0.218906 133 76 8
-0.050983 0.310181 0.204001 132 76 7
-0.050983 0.311467 0.158906 134 93 62
-0.050983 0.310258 0.203906 132 76 7
-0.035983 -0.312067 0.143906 133 77 21
-0.035983 -0.304819 0.136658 133 77 21
-0.035983 -0.307246 0.158906 133 76 8
-0.035983 -0.307871 0.173906 133 76 8
-0.035983 -0.308334 0.188906 133 76 8
-0.035983 -0.310974 0.203906 132 76 7
-0.035983 -0.304819 0.212812 133 77 29
-0.035983 -0.289819 0.137661 133 76 7
-0.035983 -0.289819 0.216176 133 76 7
-0.035983 -0.274819 0.138309 133 76 7
-0.035983 -0.274819 0.214625 132 76 7
-0.035983 -0.259819 0.138103 133 76 7
-0.035983 -0.259819 0.214431 133 76 7
-0.035983 -0.244819 0.137595 133 76 7
-0.035983 -0.244819 0.214364 133 76 7
-0.035983 -0.229819 0.139197 133 76 7
-0.035983 -0.229819 0.214389 133 76 7
-0.036506 -0.214819 0.143906 133 76 7
-0.035983 -0.214847 0.143906 133 76 7
-0.035983 -0.214819 0.143915 133 76 7
-0.035983 -0.214819 0.214374 133 76 7
-0.035983 -0.199819 0.143915 133 76 7
-0.035983 -0.199819 0.214393 133 76 7
-0.035983 -0.184819 0.143915 133 76 7
-0.035983 -0.184819 0.214410 133 76 7
-0.035983 -0.169819 0.143915 133 76 7
-0.035983 -0.169819 0.214462 133 76 7
-0.035983 -0.154819 0.143915 133 76 7
-0.035983 -0.154819 0.215539 130 75 7
-0.035983 -0.139819 0.143915 133 76 7
-0.035983 -0.139819 0.215557 130 75 7
-0.035983 -0.124819 0.144212 133 76 7
-0.035983 -0.124819 0.215556 130 74 7
-0.035983 -0.109819 0.144212 133 76 7
-0.035983 -0.109819 0.215625 129 74 7
-0.035983 -0.094819 0.144212 133 76 7
-0.035983 -0.094819 0.215649 130 74 7
-0.035983 -0.079819 0.144212 133 76 7
-0.035983 -0.079819 0.215689 130 74 7
-0.035983 -0.064819 0.144212 133 76 7
-0.035983 -0.064819 0.215574 130 74 7
-0.035983 -0.049819 0.144196 133 76 7
-0.035983 -0.049819 0.214406 131 74 7
-0.035983 -0.034819 0.144196 133 76 7
-0.035983 -0.034819 0.214482 133 76 7
-0.035983 -0.019819 0.145640 132 76 7
-0.035983 -0.019819 0.214607 132 76 7
-0.035983 -0.004819 0.146687 133 76 7
-0.035983 -0.004819 0.214833 130 76 7
-0.047700 -0.004819 0.278906 54 126 33
-0.048301 -0.004819 0.293906 54 118 33
-0.035983 0.010181 0.147442 133 76 7
-0.035983 0.010181 0.215048 121 76 7
-0.044653 0.010181 0.248906 55 129 33
-0.040143 0.010181 0.263906 55 85 18
-0.035983 0.010025 0.278906 54 104 26
-0.035983 0.010181 0.278360 54 104 26
-0.035990 0.010181 0.293906 54 109 21
-0.035983 0.010181 0.293499 54 109 21
-0.040277 0.010181 0.308906 54 109 15
-0.046192 0.010181 0.323906 54 126 32
-0.035983 0.025181 0.147712 132 76 7
-0.035983 0.025181 0.215495 108 76 7
-0.044290 0.025181 0.233906 55 129 33
-0.035983 0.021556 0.248906 55 121 32
-0.035983 0.025181 0.245239 55 121 32
-0.035983 0.015617 0.263906 55 85 18
-0.035983 0.010190 0.293906 54 109 21
-0.035983 0.016112 0.308906 54 109 15
-0.038192 0.025181 0.323906 54 112 20
-0.035983 0.025181 0.320350 54 112 20
-0.047214 0.025181 0.338906 54 119 31
-0.035983 0.040181 0.148175 133 76 7
-0.040773 0.040181 0.218906 74 76 7
-0.035983 0.040181 0.216160 74 76 7
-0.038346 0.040181 0.233906 54 86 20
-0.035983 0.040181 0.237352 54 86 20
-0.035983 0.029231 0.323906 54 112 20
-0.041706 0.040181 0.338906 54 108 14
-0.035983 0.040181 0.331376 54 127 33
-0.035983 0.055181 0.148203 132 76 7
-0.039161 0.055181 0.218906 55 76 8
-0.035983 0.055181 0.216667 55 76 8
-0.035983 0.045829 0.233906 54 86 20
-0.035983 0.055181 0.225085 55 76 8
-0.039419 0.055181 0.338906 52 108 18
-0.035983 0.055181 0.334433 52 108 18
-0.035983 0.070181 0.148203 132 76 7
-0.039432 0.070181 0.218906 56 76 7
-0.035983 0.070181 0.216569 56 76 7
-0.035983 0.070181 0.226252 56 76 7
-0.040613 0.070181 0.338906 46 103 18
-0.035983 0.070181 0.332898 46 103 18
-0.035983 0.085181 0.148175 133 76 7
-0.042563 0.085181 0.218906 94 76 7
-0.035983 0.085181 0.215829 94 76 7
-0.039874 0.085181 0.233906 55 83 15
-0.035983 0.076685 0.233906 54 114 32
-0.035983 0.085181 0.239592 55 83 15
-0.043880 0.085181 0.338906 54 128 32
-0.035983 0.085181 0.328508 53 121 32
-0.035983 0.100181 0.147931 133 76 7
-0.035983 0.100181 0.215252 116 76 7
-0.045510 0.100181 0.233906 55 126 32
-0.037489 0.100181 0.248906 54 99 22
-0.035983 0.097689 0.248906 54 99 22
-0.035983 0.100181 0.251696 54 99 22
-0.041595 0.100181 0.323906 41 95 15
-0.035983 0.091040 0.323906 53 121 32
-0.035983 0.100181 0.314860 52 123 33
-0.035983 0.115181 0.147442 132 76 7
-0.035983 0.115181 0.214788 126 76 7
-0.046771 0.115181 0.248906 54 127 33
-0.042968 0.115181 0.263906 55 77 9
-0.035983 0.106537 0.263906 54 129 33
-0.040711 0.115181 0.278906 54 92 17
-0.035983 0.109203 0.278906 54 92 17
-0.041477 0.115181 0.293906 47 89 13
-0.035983 0.108242 0.293906 47 89 13
-0.044283 0.115181 0.308906 54 128 33
-0.035983 0.104333 0.308906 52 123 33
-0.035983 0.130181 0.146730 133 76 7
-0.035983 0.130181 0.214766 133 76 7
-0.035983 0.145181 0.145924 132 76 7
-0.035983 0.145181 0.214563 132 76 7
-0.035983 0.160181 0.144498 133 76 7
-0.035983 0.160181 0.214418 133 76 7
-0.035983 0.175181 0.143922 133 76 7
-0.035983 0.175181 0.214397 133 76 7
-0.035983 0.190181 0.143922 133 76 7
-0.035983 0.190181 0.214358 133 76 7
-0.035983 0.205181 0.143922 133 76 7
-0.035983 0.205181 0.214313 133 76 7
-0.036941 0.220181 0.143906 133 76 7
-0.035983 0.220181 0.143922 133 76 7
-0.035983 0.220181 0.214304 133 76 7
-0.035983 0.220217 0.143906 133 76 7
-0.035983 0.235181 0.135699 133 76 7
-0.035983 0.235181 0.214326 132 76 7
-0.035983 0.250181 0.137762 133 76 7
-0.035983 0.250181 0.214277 133 76 7
-0.035983 0.265181 0.138346 133 76 7
-0.035983 0.265181 0.214354 133 76 7
-0.035983 0.280181 0.138620 133 76 7
-0.035983 0.280181 0.214647 133 76 7
-0.035983 0.286144 0.113906 133 76 7
-0.035983 0.295181 0.106624 137 97 71
-0.035983 0.288556 0.128906 136 102 81
-0.035983 0.293946 0.218906 133 76 7
-0.035983 0.295181 0.219175 133 76 7
-0.035983 0.302463 0.113906 137 97 71
-0.035983 0.298497 0.128906 136 102 81
-0.043396 0.310181 0.143906 135 87 44
-0.035983 0.310181 0.136494 135 87 44
-0.035983 0.303754 0.173906 133 76 7
-0.035983 0.310181 0.159672 134 85 51
-0.035983 0.303598 0.188906 133 76 7
-0.035983 0.310181 0.202946 132 76 8
-0.035983 0.295802 0.218906 133 76 7
-0.035983 0.310181 0.204868 132 76 8
-0.035983 0.317594 0.143906 135 87 44
-0.035983 0.310416 0.158906 134 85 51
-0.035983 0.311070 0.203906 132 76 8
-0.020983 -0.312090 0.143906 133 76 7
-0.020983 -0.304819 0.136634 133 76 7
-0.020983 -0.307499 0.158906 133 76 7
-0.020983 -0.307775 0.173906 133 76 8
-0.020983 -0.307262 0.188906 133 76 12
-0.020983 -0.311924 0.203906 132 75 7
-0.020983 -0.304819 0.217943 133 76 22
-0.020983 -0.289819 0.138071 133 76 7
-0.020983 -0.289819 0.215135 133 76 7
-0.020983 -0.274819 0.138395 133 76 7
-0.020983 -0.274819 0.214566 133 76 7
-0.020983 -0.259819 0.137784 133 76 7
-0.020983 -0.259819 0.214398 133 76 7
-0.020983 -0.244819 0.136857 133 76 7
-0.020983 -0.244819 0.214375 133 76 7
-0.020983 -0.229819 0.140769 133 76 7
-0.020983 -0.229819 0.214377 133 76 7
-0.035501 -0.214819 0.143906 133 76 7
-0.020983 -0.214819 0.143705 133 76 7
-0.020983 -0.214819 0.214364 133 76 7
-0.035501 -0.199819 0.143906 133 76 7
-0.020983 -0.199819 0.143707 133 76 7
-0.020983 -0.199819 0.214380 131 76 7
-0.035501 -0.184819 0.143906 133 76 7
-0.020983 -0.184819 0.143707 133 76 7
-0.020983 -0.184819 0.214399 132 76 7
-0.020983 -0.171445 0.143906 133 76 7
-0.020983 -0.169819 0.143937 133 76 7
-0.020983 -0.169819 0.214415 133 76 7
-0.020983 -0.154819 0.143939 133 76 7
-0.020983 -0.154819 0.215583 131 76 7
-0.020983 -0.139819 0.143939 133 76 7
-0.020983 -0.139819 0.215564 130 75 7
-0.020983 -0.124819 0.143939 133 76 7
-0.020983 -0.124819 0.215688 129 74 7
-0.020983 -0.109819 0.143939 133 76 7
-0.020983 -0.109819 0.215753 129 74 7
