ply
format ascii 1.0
element vertex 1289
property float x
property float y
property float z
property uchar red
property uchar green
property uchar blue
end_header
0.120000 -0.182883 -0.319714 77 77 77
0.120000 -0.179714 -0.329653 77 77 77
0.113730 -0.179714 -0.299714 77 77 77
0.120000 -0.181272 -0.299714 77 77 77
0.120000 -0.179714 -0.293311 77 77 77
0.105750 -0.179714 -0.259714 76 76 76
0.120000 -0.183859 -0.239714 76 76 76
0.120000 -0.179714 -0.247415 76 76 76
0.120000 -0.192450 -0.219714 76 76 76
0.120000 -0.189287 0.020286 77 77 77
0.120000 -0.179714 0.026191 77 77 77
0.120000 -0.186992 0.500286 76 76 76
0.120000 -0.179714 0.487390 76 76 76
0.120000 -0.187708 0.520286 77 77 77
0.120000 -0.189787 0.540286 76 76 76
0.107962 -0.179714 0.580286 77 77 77
0.120000 -0.193447 0.580286 76 76 76
0.120000 -0.179714 0.582601 76 76 76
0.101361 -0.159714 -0.339714 77 77 77
0.120000 -0.173496 -0.339714 77 77 77
0.120000 -0.159714 -0.347500 76 76 76
0.120000 -0.176431 -0.279714 77 77 77
0.120000 -0.174759 -0.259714 77 77 77
0.120000 -0.159714 0.031541 76 76 76
0.120000 -0.173210 0.480286 76 76 76
0.120000 -0.159714 0.469822 76 76 76
0.118869 -0.159714 0.540286 76 76 76
0.120000 -0.161083 0.540286 76 76 76
0.120000 -0.159714 0.537481 76 76 76
0.120000 -0.159714 0.542260 76 76 76
0.120000 -0.168425 0.580286 76 76 76
0.120000 -0.159714 0.566656 76 76 76
0.120000 -0.139714 -0.351718 76 76 76
0.120000 -0.151740 0.040286 76 76 76
0.120000 -0.147720 0.060286 76 76 76
0.120000 -0.139714 0.074977 77 77 77
0.120000 -0.150796 0.460286 76 76 76
0.120000 -0.139714 0.451631 76 76 76
0.120000 -0.158496 0.540286 76 76 76
0.120000 -0.139714 0.560630 76 76 76
0.120000 -0.119714 -0.349328 76 76 76
0.110589 -0.119714 -0.079714 76 76 76
0.110474 -0.119714 -0.059714 76 76 76
0.120000 -0.136024 0.080286 77 77 77
0.120000 -0.127990 0.100286 77 77 77
0.120000 -0.119714 0.109942 77 77 77
0.120000 -0.130726 0.440286 76 76 76
0.120000 -0.119714 0.429725 76 76 76
0.120000 -0.119714 0.570433 76 76 76
0.120000 -0.099714 -0.340422 76 76 76
0.110661 -0.099714 -0.119714 76 76 76
0.110366 -0.099714 -0.099714 77 77 77
0.110360 -0.099714 -0.079714 76 76 76
0.110267 -0.099714 -0.059714 77 77 77
0.110250 -0.099714 -0.039714 77 77 77
0.110480 -0.099714 -0.019714 76 76 76
0.120000 -0.110222 0.120286 76 76 76
0.118415 -0.099714 0.140286 76 76 76
0.120000 -0.099714 0.139849 76 76 76
0.106397 -0.099714 0.420286 76 76 76
0.120000 -0.105162 0.420286 77 77 77
0.120000 -0.099714 0.415162 77 77 77
0.120000 -0.099714 0.570511 76 76 76
0.120000 -0.097336 -0.339714 76 76 76
0.120000 -0.079714 -0.331024 76 76 76
0.110603 -0.079714 -0.139714 76 76 76
0.110405 -0.079714 -0.119714 77 77 77
0.110175 -0.079714 -0.099714 77 77 77
0.110103 -0.079714 -0.079714 77 77 77
0.120000 -0.089982 -0.059714 77 77 77
0.120000 -0.079714 -0.069817 77 77 77
0.120000 -0.089964 -0.039714 77 77 77
0.110068 -0.079714 -0.019714 77 77 77
0.120000 -0.079714 -0.029646 77 77 77
0.110320 -0.079714 0.000286 77 77 77
0.120000 -0.099340 0.140286 76 76 76
0.110079 -0.079714 0.160286 77 77 77
0.120000 -0.079714 0.157897 77 77 77
0.120000 -0.079714 0.407444 76 76 76
0.120000 -0.079714 0.563785 77 77 77
0.120000 -0.061420 -0.319714 77 77 77
0.120000 -0.059714 -0.318442 77 77 77
0.110543 -0.059714 -0.159714 77 77 77
0.110281 -0.059714 -0.139714 76 76 76
0.110004 -0.059714 -0.119714 77 77 77
0.120000 -0.069890 -0.099714 77 77 77
0.120000 -0.059714 -0.109718 77 77 77
0.120000 -0.069817 -0.079714 77 77 77
0.120000 -0.069782 -0.019714 77 77 77
0.120000 -0.070034 0.000286 77 77 77
0.110020 -0.059714 0.020286 78 78 78
0.120000 -0.059714 0.010306 78 78 78
0.120000 -0.077064 0.160286 77 77 77
0.120000 -0.059714 0.173697 77 77 77
0.118615 -0.059714 0.400286 77 77 77
0.120000 -0.061722 0.400286 77 77 77
0.120000 -0.059714 0.399386 77 77 77
0.101730 -0.059714 0.440286 77 77 77
0.113727 -0.059714 0.460286 77 77 77
0.117884 -0.059714 0.480286 76 76 76
0.117824 -0.059714 0.500286 77 77 77
0.106875 -0.059714 0.520286 76 76 76
0.120000 -0.074057 0.560286 77 77 77
0.120000 -0.059714 0.548690 76 76 76
0.120000 -0.039714 -0.319227 76 76 76
0.110441 -0.039714 -0.179714 77 77 77
0.110102 -0.039714 -0.159714 77 77 77
0.120000 -0.049995 -0.139714 76 76 76
0.120000 -0.039714 -0.149816 77 77 77
0.120000 -0.049718 -0.119714 77 77 77
0.120000 -0.049734 0.020286 78 78 78
0.120000 -0.050090 0.040286 77 77 77
0.120000 -0.050275 0.060286 77 77 77
0.120000 -0.039714 0.070365 77 77 77
0.120000 -0.051440 0.180286 77 77 77
0.120000 -0.039714 0.187243 77 77 77
0.116085 -0.039714 0.400286 77 77 77
0.120000 -0.039714 0.396781 77 77 77
0.108355 -0.039714 0.420286 76 76 76
0.120000 -0.046136 0.440286 76 76 76
0.120000 -0.039714 0.434246 76 76 76
0.120000 -0.053705 0.460286 77 77 77
0.120000 -0.058286 0.480286 76 76 76
0.120000 -0.057809 0.500286 77 77 77
0.115812 -0.039714 0.520286 76 76 76
0.120000 -0.039714 0.513760 76 76 76
0.100582 -0.039714 0.540286 76 76 76
0.120000 -0.047542 0.540286 76 76 76
0.120000 -0.039714 0.529952 76 76 76
0.117044 -0.019714 -0.319714 76 76 76
0.120000 -0.024580 -0.319714 76 76 76
0.120000 -0.019714 -0.319821 76 76 76
0.110307 -0.019714 -0.199714 76 76 76
0.110037 -0.019714 -0.179714 77 77 77
0.120000 -0.029816 -0.159714 77 77 77
0.120000 -0.019714 -0.169752 77 77 77
0.120000 -0.029793 0.080286 77 77 77
0.110097 -0.019714 0.100286 77 77 77
0.120000 -0.019714 0.090383 77 77 77
0.108765 -0.019714 0.200286 77 77 77
0.120000 -0.019714 0.195300 77 77 77
0.120000 -0.034597 0.400286 77 77 77
0.120000 -0.029542 0.420286 77 77 77
0.120000 -0.032753 0.520286 76 76 76
0.120000 0.000286 -0.320290 77 77 77
0.110042 0.000286 -0.219714 77 77 77
0.120000 -0.010021 -0.199714 76 76 76
0.120000 0.000286 -0.209756 77 77 77
0.120000 -0.009752 -0.179714 77 77 77
0.120000 -0.009812 0.100286 77 77 77
0.120000 0.000286 0.110952 77 77 77
0.120000 -0.011226 0.200286 77 77 77
0.120000 0.000286 0.205728 76 76 76
0.120000 0.020286 -0.320696 76 76 76
0.120000 0.010244 -0.219714 77 77 77
0.120000 0.020286 -0.230418 77 77 77
0.120000 0.020286 0.110767 77 77 77
0.120000 0.020286 0.210686 76 76 76
0.120000 0.040286 -0.321220 76 76 76
0.120000 0.040286 -0.230406 76 76 76
0.120000 0.040286 0.110660 77 77 77
0.106274 0.040286 0.220286 77 77 77
0.120000 0.040286 0.215518 76 76 76
0.120000 0.060286 -0.323449 77 77 77
0.120000 0.060286 -0.230431 77 77 77
0.120000 0.060286 0.110596 77 77 77
0.114376 0.060286 0.220286 77 77 77
0.120000 0.060286 0.218378 77 77 77
0.120000 0.080286 -0.326580 77 77 77
0.120000 0.080286 -0.230417 77 77 77
0.120000 0.080286 0.110576 76 76 76
0.115614 0.080286 0.220286 76 76 76
0.120000 0.080286 0.218076 76 76 76
0.120000 0.100286 -0.326367 77 77 77
0.120000 0.100286 -0.230423 77 77 77
0.120000 0.100286 0.110669 76 76 76
0.110496 0.100286 0.220286 77 77 77
0.120000 0.100286 0.215455 77 77 77
0.120000 0.120286 -0.325217 76 76 76
0.120000 0.120286 -0.230412 77 77 77
0.120000 0.120286 0.110882 77 77 77
0.120000 0.120286 0.209954 77 77 77
0.120000 0.140286 -0.324620 77 77 77
0.110298 0.140286 -0.219714 77 77 77
0.120000 0.130585 -0.219714 77 77 77
0.110225 0.140286 -0.199714 77 77 77
0.120000 0.130511 -0.199714 77 77 77
0.110109 0.140286 -0.179714 77 77 77
0.120000 0.130395 -0.179714 77 77 77
0.120000 0.140286 -0.169823 77 77 77
0.110176 0.140286 0.100286 76 76 76
0.120000 0.130462 0.100286 76 76 76
0.120000 0.140286 0.090462 76 76 76
0.120000 0.140286 0.201337 77 77 77
0.120000 0.160286 -0.321777 76 76 76
0.120000 0.150886 -0.159714 77 77 77
0.110373 0.160286 -0.139714 77 77 77
0.120000 0.150659 -0.139714 77 77 77
0.110186 0.160286 -0.119714 77 77 77
0.120000 0.150472 -0.119714 77 77 77
0.120000 0.160286 -0.109900 77 77 77
0.120000 0.150342 0.080286 77 77 77
0.120000 0.160286 0.070342 77 77 77
0.101544 0.160286 0.200286 77 77 77
0.120000 0.142007 0.200286 77 77 77
0.120000 0.160286 0.190279 76 76 76
0.109552 0.180286 -0.319714 77 77 77
0.120000 0.180286 -0.320590 76 76 76
0.120000 0.170812 -0.099714 77 77 77
0.110358 0.180286 -0.079714 77 77 77
0.120000 0.170644 -0.079714 77 77 77
0.110195 0.180286 -0.059714 77 77 77
0.120000 0.170481 -0.059714 77 77 77
0.110088 0.180286 -0.039714 77 77 77
0.120000 0.170374 -0.039714 77 77 77
0.120000 0.180286 -0.029802 77 77 77
0.110040 0.180286 0.000286 77 77 77
0.120000 0.170326 0.000286 77 77 77
0.120000 0.180286 -0.009674 77 77 77
0.120000 0.170539 0.020286 77 77 77
0.120000 0.170747 0.040286 77 77 77
0.120000 0.170857 0.060286 77 77 77
0.120000 0.180286 0.182927 77 77 77
0.120000 0.187831 -0.319714 76 76 76
0.120000 0.200286 -0.317690 76 76 76
0.120000 0.190787 -0.019714 76 76 76
0.120000 0.183772 0.180286 77 77 77
0.120000 0.200286 0.166560 77 77 77
0.120000 0.204391 -0.319714 76 76 76
0.120000 0.220286 -0.326478 76 76 76
0.120000 0.206779 0.160286 77 77 77
0.120000 0.220286 0.145434 77 77 77
0.120000 0.231627 -0.339714 77 77 77
0.120000 0.240286 -0.344781 77 77 77
0.110443 0.240286 0.120286 77 77 77
0.120000 0.235995 0.120286 77 77 77
0.120000 0.240286 0.114454 77 77 77
0.120000 0.224688 0.140286 77 77 77
0.120000 0.260286 -0.348437 76 76 76
0.120000 0.254460 0.080286 76 76 76
0.120000 0.260286 0.070582 76 76 76
0.120000 0.247555 0.100286 76 76 76
0.120000 0.280286 -0.350219 77 77 77
0.112604 0.280286 -0.239714 76 76 76
0.120000 0.274916 -0.239714 76 76 76
0.120000 0.280286 -0.243257 76 76 76
0.119277 0.280286 -0.219714 77 77 77
0.120000 0.279408 -0.219714 77 77 77
0.120000 0.280286 -0.216532 77 77 77
0.103879 0.280286 0.040286 76 76 76
0.120000 0.274449 0.040286 76 76 76
0.120000 0.280286 0.033650 76 76 76
0.120000 0.265643 0.060286 77 77 77
0.114548 0.300286 -0.359714 77 77 77
0.120000 0.295513 -0.359714 77 77 77
0.120000 0.300286 -0.363986 77 77 77
0.120000 0.300286 -0.253038 76 76 76
0.100968 0.300286 -0.219714 76 76 76
0.107638 0.300286 -0.199714 76 76 76
0.120000 0.284185 -0.199714 77 77 77
0.110037 0.300286 -0.179714 77 77 77
0.120000 0.286677 -0.179714 76 76 76
0.114355 0.300286 -0.159714 77 77 77
0.120000 0.292927 -0.159714 77 77 77
0.120000 0.300286 -0.150832 77 77 77
0.120000 0.300286 0.022515 76 76 76
0.110061 0.320286 -0.399714 78 78 78
0.120000 0.308520 -0.399714 77 77 77
0.120000 0.320286 -0.409653 78 78 78
0.120000 0.306768 -0.379714 77 77 77
0.120000 0.314006 -0.259714 76 76 76
0.120000 0.320286 -0.266052 76 76 76
0.106809 0.320286 -0.139714 76 76 76
0.120000 0.306816 -0.139714 76 76 76
0.114337 0.320286 -0.119714 76 76 76
0.120000 0.314184 -0.119714 76 76 76
0.120000 0.320286 -0.111069 76 76 76
0.120000 0.303468 0.020286 76 76 76
0.120000 0.320286 0.004593 77 77 77
0.120000 0.330224 -0.399714 78 78 78
0.120000 0.328589 -0.379714 77 77 77
0.120000 0.325280 -0.359714 77 77 77
0.120000 0.325498 -0.339714 77 77 77
0.120000 0.329902 -0.319714 77 77 77
0.120000 0.328695 -0.299714 76 76 76
0.120000 0.326082 -0.279714 77 77 77
0.120000 0.323768 -0.099714 77 77 77
0.102529 0.340286 -0.079714 77 77 77
0.120000 0.330530 -0.079714 76 76 76
0.120000 0.340286 -0.062248 76 76 76
0.119025 0.340286 -0.039714 76 76 76
0.120000 0.339552 -0.039714 76 76 76
0.120000 0.340286 -0.044863 76 76 76
0.102769 0.340286 -0.019714 76 76 76
0.120000 0.331141 -0.019714 77 77 77
0.120000 0.323679 0.000286 77 77 77
0.120000 0.341727 -0.059714 76 76 76
0.137323 -0.219714 -0.139714 77 77 77
0.140000 -0.228620 -0.119714 76 76 76
0.140000 -0.219714 -0.135938 77 77 77
0.140000 -0.231478 -0.099714 77 77 77
0.140000 -0.229283 -0.079714 77 77 77
0.140000 -0.230244 -0.059714 76 76 76
0.140000 -0.228567 -0.039714 76 76 76
0.140000 -0.221002 -0.019714 77 77 77
0.140000 -0.219714 -0.018103 77 77 77
0.122590 -0.219714 0.560286 77 77 77
0.124800 -0.199714 -0.199714 77 77 77
0.136467 -0.199714 -0.179714 77 77 77
0.140000 -0.207805 -0.159714 76 76 76
0.140000 -0.199714 -0.173683 77 77 77
0.140000 -0.217320 -0.139714 77 77 77
0.140000 -0.206921 0.000286 77 77 77
0.140000 -0.199714 0.006246 77 77 77
0.140000 -0.210011 0.560286 77 77 77
0.140000 -0.199714 0.545876 77 77 77
0.140000 -0.199714 0.579214 77 77 77
0.135063 -0.179714 -0.359714 77 77 77
0.140000 -0.182629 -0.359714 77 77 77
0.140000 -0.179714 -0.370396 77 77 77
0.126576 -0.179714 -0.339714 77 77 77
0.140000 -0.185960 -0.339714 77 77 77
0.140000 -0.185124 -0.319714 77 77 77
0.140000 -0.184955 -0.299714 76 76 76
0.140000 -0.179714 -0.281787 76 76 76
0.125562 -0.179714 -0.239714 76 76 76
0.136559 -0.179714 -0.219714 77 77 77
0.140000 -0.188215 -0.199714 76 76 76
0.140000 -0.179714 -0.214865 77 77 77
0.140000 -0.196385 -0.179714 77 77 77
0.133146 -0.179714 0.020286 77 77 77
0.140000 -0.179714 0.015985 77 77 77
0.140000 -0.182473 0.500286 76 76 76
0.140000 -0.179714 0.495281 76 76 76
0.140000 -0.185217 0.520286 76 76 76
0.140000 -0.189504 0.540286 77 77 77
0.140000 -0.197325 0.580286 77 77 77
0.140000 -0.179714 0.582313 76 76 76
0.140000 -0.169130 -0.359714 77 77 77
0.140000 -0.159714 -0.353903 77 77 77
0.140000 -0.178893 -0.279714 76 76 76
0.140000 -0.169437 -0.259714 76 76 76
0.140000 -0.167982 -0.239714 76 76 76
0.140000 -0.175918 -0.219714 77 77 77
0.140000 -0.172280 0.020286 77 77 77
0.140000 -0.159714 0.026085 77 77 77
0.140000 -0.166063 0.480286 77 77 77
0.140000 -0.159714 0.471997 77 77 77
0.131604 -0.159714 0.520286 76 76 76
0.140000 -0.163366 0.520286 76 76 76
0.140000 -0.159714 0.516965 76 76 76
0.140000 -0.171032 0.540286 77 77 77
0.140000 -0.159714 0.554798 76 76 76
0.140000 -0.169082 0.580286 77 77 77
0.140000 -0.159714 0.566937 76 76 76
0.140000 -0.139714 -0.352320 76 76 76
0.140000 -0.149025 0.040286 77 77 77
0.140000 -0.145487 0.060286 76 76 76
0.140000 -0.139714 0.070793 77 77 77
0.140000 -0.146463 0.460286 77 77 77
0.140000 -0.139714 0.454538 77 77 77
0.140000 -0.149841 0.520286 76 76 76
0.136306 -0.139714 0.540286 76 76 76
0.140000 -0.139714 0.531600 76 76 76
0.121717 -0.139714 0.560286 76 76 76
0.140000 -0.147754 0.560286 76 76 76
0.140000 -0.119714 -0.349378 77 77 77
0.140000 -0.133935 0.080286 77 77 77
0.140000 -0.126349 0.100286 76 76 76
0.140000 -0.119714 0.108335 76 76 76
0.140000 -0.126905 0.440286 76 76 76
0.140000 -0.119714 0.433017 76 76 76
0.140000 -0.136804 0.540286 76 76 76
0.137361 -0.119714 0.560286 76 76 76
0.140000 -0.119714 0.557077 76 76 76
0.140000 -0.099714 -0.340636 77 77 77
0.140000 -0.109453 0.120286 77 77 77
0.140000 -0.099714 0.134295 76 76 76
0.140000 -0.106561 0.420286 76 76 76
0.140000 -0.099714 0.411885 76 76 76
0.140000 -0.106938 0.560286 77 77 77
0.140000 -0.099714 0.562787 77 77 77
0.140000 -0.096671 -0.339714 77 77 77
0.140000 -0.079714 -0.331108 76 76 76
0.130419 -0.079714 -0.059714 77 77 77
0.130385 -0.079714 -0.039714 77 77 77
0.140000 -0.094043 0.140286 76 76 76
0.140000 -0.079714 0.155323 77 77 77
0.140000 -0.079714 0.401019 77 77 77
0.140000 -0.079714 0.560413 76 76 76
0.140000 -0.059934 -0.319714 77 77 77
0.140000 -0.059714 -0.319559 77 77 77
0.130370 -0.059714 -0.099714 76 76 76
0.130301 -0.059714 -0.079714 77 77 77
0.140000 -0.070134 -0.059714 77 77 77
0.140000 -0.059714 -0.070015 77 77 77
0.140000 -0.070099 -0.039714 77 77 77
0.140000 -0.070116 -0.019714 77 77 77
0.130081 -0.059714 0.000286 77 77 77
0.140000 -0.059714 -0.009632 77 77 77
0.140000 -0.074289 0.160286 77 77 77
0.140000 -0.059714 0.171764 77 77 77
0.140000 -0.078373 0.400286 77 77 77
0.140000 -0.059714 0.391445 77 77 77
0.140000 -0.079604 0.560286 76 76 76
0.140000 -0.059714 0.548060 77 77 77
0.138758 -0.039714 -0.319714 76 76 76
0.140000 -0.043258 -0.319714 76 76 76
0.140000 -0.039714 -0.319737 76 76 76
0.130376 -0.039714 -0.139714 76 76 76
0.130106 -0.039714 -0.119714 77 77 77
0.140000 -0.050084 -0.099714 76 76 76
0.140000 -0.039714 -0.109820 77 77 77
0.140000 -0.050015 -0.079714 77 77 77
0.140000 -0.049796 0.000286 77 77 77
0.140000 -0.049964 0.020286 77 77 77
0.140000 -0.050211 0.040286 77 77 77
0.140000 -0.050318 0.060286 77 77 77
0.140000 -0.039714 0.070310 77 77 77
0.140000 -0.047557 0.180286 77 77 77
0.140000 -0.039714 0.184636 77 77 77
0.140000 -0.039714 0.390063 77 77 77
0.128629 -0.039714 0.440286 76 76 76
0.139233 -0.039714 0.460286 77 77 77
0.140000 -0.042437 0.480286 76 76 76
0.140000 -0.039714 0.463115 77 77 77
0.136861 -0.039714 0.500286 76 76 76
0.140000 -0.039714 0.489757 76 76 76
0.140000 -0.048280 0.540286 76 76 76
0.140000 -0.039714 0.531366 76 76 76
0.140000 -0.019714 -0.320482 77 77 77
0.130171 -0.019714 -0.159714 77 77 77
0.140000 -0.030090 -0.139714 76 76 76
0.140000 -0.019714 -0.149885 77 77 77
0.140000 -0.029820 -0.119714 77 77 77
0.140000 -0.029739 0.080286 77 77 77
0.140000 -0.019714 0.090467 77 77 77
0.140000 -0.019714 0.191578 77 77 77
0.132281 -0.019714 0.400286 76 76 76
0.140000 -0.019714 0.392397 76 76 76
0.134605 -0.019714 0.420286 76 76 76
0.140000 -0.027930 0.440286 76 76 76
0.140000 -0.019714 0.429748 76 76 76
0.140000 -0.039208 0.460286 77 77 77
0.140000 -0.036234 0.500286 76 76 76
0.140000 -0.030264 0.520286 76 76 76
0.140000 0.000286 -0.320564 76 76 76
0.130302 0.000286 -0.199714 77 77 77
0.140000 -0.010214 -0.179714 77 77 77
0.140000 0.000286 -0.190017 77 77 77
0.140000 -0.009885 -0.159714 77 77 77
0.130047 0.000286 0.100286 77 77 77
0.140000 0.000286 0.090333 77 77 77
0.140000 -0.001929 0.200286 76 76 76
0.140000 0.000286 0.201299 76 76 76
0.140000 -0.011785 0.400286 76 76 76
0.140000 -0.015526 0.420286 76 76 76
0.140000 0.020286 -0.321708 76 76 76
0.140000 0.009768 -0.219714 77 77 77
0.140000 0.020286 -0.230378 76 76 76
0.140000 0.009983 -0.199714 77 77 77
0.140000 0.010238 0.100286 77 77 77
0.140000 0.020286 0.110899 77 77 77
0.140000 0.020286 0.207054 77 77 77
0.140000 0.040286 -0.323754 76 76 76
0.140000 0.040286 -0.230431 77 77 77
0.140000 0.040286 0.110851 77 77 77
0.140000 0.040286 0.211852 77 77 77
0.140000 0.060286 -0.327566 77 77 77
0.140000 0.060286 -0.230429 76 76 76
0.140000 0.060286 0.110737 77 77 77
0.140000 0.060286 0.214655 76 76 76
0.140000 0.080286 -0.327856 76 76 76
0.140000 0.080286 -0.230388 77 77 77
0.140000 0.080286 0.110748 77 77 77
0.140000 0.080286 0.214083 77 77 77
0.140000 0.100286 -0.327972 77 77 77
0.140000 0.100286 -0.230385 76 76 76
0.140000 0.100286 0.110850 77 77 77
0.140000 0.100286 0.210055 77 77 77
0.140000 0.120286 -0.326513 77 77 77
0.140000 0.120286 -0.230401 76 76 76
0.130065 0.120286 0.100286 77 77 77
0.140000 0.110351 0.100286 77 77 77
0.140000 0.120286 0.090351 77 77 77
0.139473 0.120286 0.200286 77 77 77
0.140000 0.119693 0.200286 77 77 77
0.140000 0.120286 0.200024 77 77 77
0.140000 0.140286 -0.325881 77 77 77
0.140000 0.130841 -0.219714 77 77 77
0.140000 0.130736 -0.199714 76 76 76
0.140000 0.130629 -0.179714 77 77 77
0.130194 0.140286 -0.159714 77 77 77
0.140000 0.130480 -0.159714 77 77 77
0.130014 0.140286 -0.139714 77 77 77
0.140000 0.130300 -0.139714 77 77 77
0.140000 0.140286 -0.129728 77 77 77
0.140000 0.140286 0.090655 76 76 76
0.122177 0.140286 0.200286 77 77 77
0.140000 0.140286 0.191824 77 77 77
0.140000 0.160286 -0.324005 76 76 76
0.140000 0.150772 -0.119714 77 77 77
0.130243 0.160286 -0.099714 77 77 77
0.140000 0.150529 -0.099714 77 77 77
0.130130 0.160286 -0.079714 77 77 77
0.140000 0.150416 -0.079714 77 77 77
0.140000 0.160286 -0.069844 77 77 77
0.140000 0.150501 0.080286 77 77 77
0.140000 0.160286 0.070501 77 77 77
0.140000 0.160286 0.185227 77 77 77
0.140000 0.180286 -0.322023 76 76 76
0.140000 0.170922 -0.059714 76 76 76
0.140000 0.170780 -0.039714 77 77 77
0.130257 0.180286 -0.019714 77 77 77
0.140000 0.170543 -0.019714 77 77 77
0.140000 0.170577 0.000286 77 77 77
0.140000 0.170599 0.020286 77 77 77
0.140000 0.170767 0.040286 77 77 77
0.140000 0.170915 0.060286 76 76 76
0.126142 0.180286 0.180286 77 77 77
0.140000 0.169012 0.180286 77 77 77
0.140000 0.180286 0.172182 77 77 77
0.131782 0.200286 -0.319714 77 77 77
0.140000 0.200286 -0.320671 77 77 77
0.132421 0.200286 0.160286 77 77 77
0.140000 0.194584 0.160286 77 77 77
0.140000 0.200286 0.154389 77 77 77
0.140000 0.220286 -0.333193 76 76 76
0.128952 0.220286 0.140286 77 77 77
0.140000 0.212711 0.140286 77 77 77
0.140000 0.220286 0.132024 77 77 77
0.140000 0.228032 -0.339714 76 76 76
0.140000 0.240286 -0.345003 77 77 77
0.140000 0.229078 0.120286 77 77 77
0.140000 0.240286 0.106216 76 76 76
0.140000 0.260286 -0.348705 76 76 76
0.134669 0.260286 -0.219714 76 76 76
0.140000 0.255652 -0.219714 76 76 76
0.140000 0.260286 -0.230772 77 77 77
0.135432 0.260286 -0.199714 77 77 77
0.140000 0.254490 -0.199714 77 77 77
0.136605 0.260286 -0.179714 77 77 77
0.140000 0.256525 -0.179714 77 77 77
0.140000 0.260286 -0.171302 77 77 77
0.140000 0.251475 0.080286 76 76 76
0.140000 0.260286 0.066546 76 76 76
0.140000 0.244306 0.100286 76 76 76
0.140000 0.280286 -0.356506 77 77 77
0.140000 0.263325 -0.239714 77 77 77
0.140000 0.280286 -0.249351 77 77 77
0.123311 0.280286 -0.199714 77 77 77
0.124897 0.280286 -0.179714 76 76 76
0.129873 0.280286 -0.159714 77 77 77
0.140000 0.266152 -0.159714 76 76 76
0.137836 0.280286 -0.139714 76 76 76
0.140000 0.277537 -0.139714 76 76 76
0.140000 0.280286 -0.134245 76 76 76
0.139393 0.280286 0.020286 77 77 77
0.140000 0.279892 0.020286 77 77 77
0.140000 0.280286 0.019673 77 77 77
0.140000 0.269148 0.040286 77 77 77
0.140000 0.263899 0.060286 76 76 76
0.140000 0.291442 -0.359714 77 77 77
0.140000 0.300286 -0.363493 77 77 77
0.140000 0.300286 -0.255149 77 77 77
0.126489 0.300286 -0.139714 76 76 76
0.132510 0.300286 -0.119714 76 76 76
0.140000 0.288420 -0.119714 77 77 77
0.140000 0.300286 -0.106343 77 77 77
0.124052 0.300286 0.020286 76 76 76
0.140000 0.300286 0.003603 76 76 76
0.129938 0.320286 -0.399714 78 78 78
0.140000 0.305169 -0.379714 77 77 77
0.140000 0.320286 -0.387776 77 77 77
0.140000 0.309311 -0.259714 77 77 77
0.140000 0.320286 -0.271539 77 77 77
0.126422 0.320286 -0.099714 77 77 77
0.140000 0.304202 -0.099714 77 77 77
0.140000 0.320286 -0.080189 76 76 76
0.136375 0.320286 -0.019714 76 76 76
0.140000 0.316078 -0.019714 76 76 76
0.140000 0.320286 -0.026025 76 76 76
0.124614 0.320286 0.000286 77 77 77
0.140000 0.303070 0.000286 76 76 76
0.140000 0.328348 -0.379714 77 77 77
0.140000 0.322776 -0.359714 77 77 77
0.140000 0.322863 -0.339714 77 77 77
0.140000 0.329284 -0.319714 77 77 77
0.140000 0.327741 -0.299714 77 77 77
0.140000 0.324252 -0.279714 77 77 77
0.140000 0.320517 -0.079714 76 76 76
0.122237 0.340286 -0.059714 76 76 76
0.140000 0.327009 -0.059714 76 76 76
0.140000 0.326011 -0.039714 76 76 76
0.148376 -0.219714 -0.119714 76 76 76
0.153684 -0.219714 -0.099714 77 77 77
0.158377 -0.219714 -0.079714 77 77 77
0.160000 -0.221808 -0.059714 76 76 76
0.160000 -0.219714 -0.072234 77 77 77
0.154329 -0.219714 -0.039714 76 76 76
0.160000 -0.219714 -0.053551 76 76 76
0.141456 -0.219714 -0.019714 77 77 77
0.147314 -0.199714 -0.159714 76 76 76
0.156431 -0.199714 -0.139714 76 76 76
0.160000 -0.208104 -0.119714 76 76 76
0.160000 -0.199714 -0.134304 76 76 76
0.160000 -0.213878 -0.099714 77 77 77
0.160000 -0.218172 -0.079714 77 77 77
0.160000 -0.214168 -0.039714 76 76 76
0.160000 -0.205903 -0.019714 76 76 76
0.149506 -0.199714 0.000286 77 77 77
0.160000 -0.199714 -0.010803 76 76 76
0.144834 -0.199714 0.560286 77 77 77
0.159121 -0.179714 -0.379714 77 77 77
0.160000 -0.179850 -0.379714 77 77 77
0.160000 -0.179714 -0.380178 77 77 77
0.160000 -0.180579 -0.359714 77 77 77
0.160000 -0.186271 -0.339714 77 77 77
0.160000 -0.187045 -0.319714 76 76 76
0.160000 -0.185811 -0.299714 76 76 76
0.146081 -0.179714 -0.279714 76 76 76
0.160000 -0.181144 -0.279714 77 77 77
0.160000 -0.179714 -0.276708 77 77 77
0.149380 -0.179714 -0.199714 76 76 76
0.156779 -0.179714 -0.179714 76 76 76
0.160000 -0.185107 -0.159714 76 76 76
0.160000 -0.179714 -0.171849 76 76 76
0.160000 -0.194865 -0.139714 76 76 76
0.160000 -0.186877 0.000286 76 76 76
0.160000 -0.179714 0.004797 76 76 76
0.142675 -0.179714 0.500286 76 76 76
0.146097 -0.179714 0.520286 76 76 76
0.149559 -0.179714 0.540286 77 77 77
0.160000 -0.183586 0.560286 77 77 77
0.160000 -0.179714 0.547294 76 76 76
0.160000 -0.183553 0.580286 76 76 76
0.160000 -0.179714 0.581650 76 76 76
0.160000 -0.179419 -0.379714 77 77 77
0.146494 -0.159714 -0.359714 77 77 77
0.160000 -0.159714 -0.367896 77 77 77
0.159737 -0.159714 -0.259714 76 76 76
0.160000 -0.159714 -0.259846 76 76 76
0.149848 -0.159714 -0.239714 76 76 76
0.153921 -0.159714 -0.219714 76 76 76
0.160000 -0.163352 -0.199714 76 76 76
0.160000 -0.159714 -0.205649 76 76 76
0.160000 -0.174279 -0.179714 76 76 76
0.151638 -0.159714 0.020286 76 76 76
0.160000 -0.159714 0.013759 76 76 76
0.148978 -0.159714 0.480286 77 77 77
0.150573 -0.159714 0.500286 76 76 76
0.160000 -0.159714 0.556374 76 76 76
0.160000 -0.171954 0.580286 76 76 76
0.160000 -0.159714 0.567097 76 76 76
0.160000 -0.146548 -0.359714 77 77 77
0.160000 -0.139714 -0.355078 77 77 77
0.160000 -0.159531 -0.259714 76 76 76
0.160000 -0.147265 -0.239714 76 76 76
0.160000 -0.150266 -0.219714 76 76 76
0.160000 -0.156492 0.020286 76 76 76
0.160000 -0.147052 0.040286 76 76 76
0.160000 -0.141506 0.060286 76 76 76
0.160000 -0.139714 0.063491 76 76 76
0.147685 -0.139714 0.460286 77 77 77
0.151314 -0.139714 0.480286 76 76 76
0.148988 -0.139714 0.500286 76 76 76
0.143057 -0.139714 0.520286 76 76 76
0.160000 -0.148642 0.560286 76 76 76
0.160000 -0.119714 -0.351940 77 77 77
0.160000 -0.131657 0.080286 77 77 77
0.160000 -0.125939 0.100286 77 77 77
0.160000 -0.119714 0.107574 77 77 77
0.160000 -0.120662 0.440286 76 76 76
0.160000 -0.119714 0.439100 76 76 76
0.160000 -0.124410 0.460286 77 77 77
0.160000 -0.125185 0.480286 77 77 77
0.160000 -0.124876 0.500286 76 76 76
0.160000 -0.121241 0.520286 76 76 76
0.152513 -0.119714 0.540286 77 77 77
0.160000 -0.119714 0.523189 76 76 76
0.160000 -0.099714 -0.341997 77 77 77
0.160000 -0.108066 0.120286 77 77 77
0.160000 -0.099714 0.131507 76 76 76
0.160000 -0.103305 0.420286 76 76 76
0.160000 -0.099714 0.415423 76 76 76
0.160000 -0.106191 0.540286 76 76 76
0.141721 -0.099714 0.560286 77 77 77
0.160000 -0.099714 0.544282 76 76 76
0.160000 -0.094687 -0.339714 77 77 77
0.160000 -0.079714 -0.329474 76 76 76
0.160000 -0.091634 0.140286 76 76 76
0.160000 -0.079714 0.154575 76 76 76
0.143051 -0.079714 0.400286 77 77 77
0.160000 -0.083606 0.400286 76 76 76
0.160000 -0.079714 0.395178 76 76 76
0.140440 -0.079714 0.560286 76 76 76
0.160000 -0.079714 0.551911 77 77 77
0.143900 -0.059714 -0.319714 77 77 77
0.160000 -0.059714 -0.320172 76 76 76
0.150364 -0.059714 -0.059714 77 77 77
0.150187 -0.059714 -0.039714 76 76 76
0.150108 -0.059714 -0.019714 77 77 77
0.160000 -0.073369 0.160286 76 76 76
0.160000 -0.059714 0.170922 77 77 77
0.160000 -0.059714 0.384824 77 77 77
0.160000 -0.059714 0.546401 76 76 76
0.160000 -0.039714 -0.320708 77 77 77
0.150343 -0.039714 -0.099714 77 77 77
0.150178 -0.039714 -0.079714 77 77 77
0.160000 -0.050078 -0.059714 77 77 77
0.160000 -0.039714 -0.069893 77 77 77
0.160000 -0.049901 -0.039714 76 76 76
0.160000 -0.049823 -0.019714 77 77 77
0.160000 -0.050025 0.000286 77 77 77
0.160000 -0.050142 0.020286 77 77 77
0.160000 -0.050325 0.040286 77 77 77
0.150042 -0.039714 0.060286 77 77 77
0.160000 -0.039714 0.050328 77 77 77
0.160000 -0.046106 0.180286 77 77 77
0.160000 -0.039714 0.183857 77 77 77
0.158116 -0.039714 0.380286 77 77 77
0.160000 -0.043330 0.380286 77 77 77
0.160000 -0.039714 0.379152 77 77 77
0.142594 -0.039714 0.480286 76 76 76
0.160000 -0.053369 0.540286 76 76 76
0.160000 -0.039714 0.531581 77 77 77
0.160000 -0.019714 -0.321039 77 77 77
0.150250 -0.019714 -0.139714 77 77 77
0.160000 -0.030255 -0.119714 76 76 76
0.160000 -0.019714 -0.129964 77 77 77
0.160000 -0.030057 -0.099714 77 77 77
0.160000 -0.029893 -0.079714 77 77 77
0.160000 -0.029756 0.060286 77 77 77
0.160000 -0.029872 0.080286 77 77 77
0.160000 -0.019714 0.090557 77 77 77
0.160000 -0.019714 0.191088 77 77 77
0.155656 -0.019714 0.380286 76 76 76
0.160000 -0.019714 0.377318 76 76 76
0.154261 -0.019714 0.440286 76 76 76
0.160000 -0.022513 0.460286 76 76 76
0.160000 -0.019714 0.450857 76 76 76
0.160000 -0.023387 0.480286 76 76 76
0.150278 -0.019714 0.500286 76 76 76
0.160000 -0.019714 0.484931 76 76 76
0.160000 -0.028896 0.520286 76 76 76
0.160000 -0.019714 0.509586 76 76 76
0.160000 0.000286 -0.322219 76 76 76
0.150327 0.000286 -0.179714 77 77 77
0.160000 -0.010277 -0.159714 77 77 77
0.160000 0.000286 -0.170041 77 77 77
0.160000 -0.009964 -0.139714 77 77 77
0.160000 0.000286 0.090370 77 77 77
0.144959 0.000286 0.200286 76 76 76
0.160000 0.000286 0.196830 77 77 77
0.160000 -0.014357 0.380286 76 76 76
0.151959 0.000286 0.400286 76 76 76
0.160000 0.000286 0.390930 76 76 76
0.160000 -0.000658 0.420286 77 77 77
0.160000 0.000286 0.418667 77 77 77
0.160000 -0.016706 0.440286 76 76 76
0.160000 -0.012880 0.500286 76 76 76
0.160000 0.020286 -0.324365 76 76 76
0.150241 0.020286 -0.219714 77 77 77
0.150044 0.020286 -0.199714 77 77 77
0.160000 0.009959 -0.179714 77 77 77
0.160000 0.020286 -0.189758 77 77 77
0.150004 0.020286 0.100286 77 77 77
0.160000 0.020286 0.090290 77 77 77
0.160000 0.008454 0.200286 77 77 77
0.160000 0.020286 0.204967 77 77 77
0.160000 0.006852 0.400286 76 76 76
0.160000 0.040286 -0.326693 76 76 76
0.160000 0.030045 -0.219714 77 77 77
0.160000 0.040286 -0.230322 76 76 76
0.160000 0.030242 -0.199714 77 77 77
0.160000 0.030282 0.100286 77 77 77
0.160000 0.040286 0.110920 77 77 77
0.160000 0.040286 0.211136 76 76 76
0.160000 0.060286 -0.330832 77 77 77
0.160000 0.060286 -0.230315 77 77 77
0.160000 0.060286 0.110783 77 77 77
0.160000 0.060286 0.213605 77 77 77
0.160000 0.080286 -0.333337 76 76 76
0.160000 0.080286 -0.230270 77 77 77
0.160000 0.080286 0.110786 76 76 76
0.160000 0.080286 0.212841 77 77 77
0.160000 0.100286 -0.333864 76 76 76
0.160000 0.100286 -0.230255 77 77 77
0.160000 0.100286 0.110911 77 77 77
0.160000 0.100286 0.205475 76 76 76
0.160000 0.120286 -0.330707 76 76 76
0.150024 0.120286 -0.219714 77 77 77
0.160000 0.110310 -0.219714 77 77 77
0.160000 0.120286 -0.209739 77 77 77
0.160000 0.110386 0.100286 77 77 77
0.160000 0.120286 0.090386 77 77 77
0.160000 0.109564 0.200286 76 76 76
0.160000 0.120286 0.195864 76 76 76
0.160000 0.140286 -0.328615 76 76 76
0.160000 0.130894 -0.199714 76 76 76
0.160000 0.130743 -0.179714 77 77 77
0.160000 0.130584 -0.159714 77 77 77
0.160000 0.130366 -0.139714 77 77 77
0.160000 0.140286 -0.129794 77 77 77
0.160000 0.140286 0.090556 77 77 77
0.160000 0.140286 0.187632 77 77 77
0.160000 0.160286 -0.326520 76 76 76
0.160000 0.150960 -0.119714 77 77 77
0.160000 0.150725 -0.099714 77 77 77
0.160000 0.150597 -0.079714 77 77 77
0.150213 0.160286 -0.059714 76 76 76
0.160000 0.150499 -0.059714 76 76 76
0.150106 0.160286 -0.039714 77 77 77
0.160000 0.150392 -0.039714 77 77 77
0.160000 0.160286 -0.029821 77 77 77
0.150042 0.160286 0.060286 77 77 77
0.160000 0.150329 0.060286 77 77 77
0.160000 0.160286 0.050329 77 77 77
0.160000 0.150636 0.080286 77 77 77
0.152923 0.160286 0.180286 77 77 77
0.160000 0.154278 0.180286 77 77 77
0.160000 0.160286 0.176822 77 77 77
0.160000 0.180286 -0.324548 76 76 76
0.160000 0.170807 -0.019714 76 76 76
0.160000 0.170678 0.000286 77 77 77
0.160000 0.170647 0.020286 77 77 77
0.160000 0.170796 0.040286 76 76 76
0.160000 0.180286 0.166281 77 77 77
0.160000 0.200286 -0.330668 77 77 77
0.160000 0.187231 0.160286 77 77 77
0.160000 0.200286 0.147102 77 77 77
0.160000 0.220286 -0.337300 77 77 77
0.160000 0.206056 0.140286 77 77 77
0.160000 0.220286 0.123421 77 77 77
0.160000 0.223789 -0.339714 77 77 77
0.160000 0.240286 -0.345503 76 76 76
0.159836 0.240286 -0.219714 77 77 77
0.160000 0.240099 -0.219714 77 77 77
0.160000 0.240286 -0.219843 77 77 77
0.160000 0.240286 -0.202181 76 76 76
0.150867 0.240286 0.100286 76 76 76
0.160000 0.235791 0.100286 76 76 76
0.160000 0.240286 0.094562 76 76 76
0.160000 0.222693 0.120286 77 77 77
0.160000 0.260286 -0.349326 76 76 76
0.146679 0.260286 -0.239714 77 77 77
0.160000 0.254740 -0.239714 77 77 77
0.160000 0.260286 -0.244391 77 77 77
0.160000 0.240306 -0.199714 76 76 76
0.160000 0.243454 -0.179714 77 77 77
0.145337 0.260286 -0.159714 76 76 76
0.160000 0.247805 -0.159714 76 76 76
0.152677 0.260286 -0.139714 76 76 76
0.160000 0.251111 -0.139714 76 76 76
0.157851 0.260286 -0.119714 77 77 77
0.160000 0.257492 -0.119714 77 77 77
0.160000 0.260286 -0.114067 77 77 77
0.152782 0.260286 0.060286 76 76 76
0.160000 0.257536 0.060286 76 76 76
0.160000 0.260286 0.054789 76 76 76
0.160000 0.248554 0.080286 77 77 77
0.160000 0.280286 -0.353734 76 76 76
0.160000 0.280286 -0.253023 77 77 77
0.144953 0.280286 -0.119714 77 77 77
0.151538 0.280286 -0.099714 77 77 77
0.160000 0.267448 -0.099714 77 77 77
0.160000 0.280286 -0.082099 76 76 76
0.157950 0.280286 0.000286 77 77 77
0.160000 0.278815 0.000286 77 77 77
0.160000 0.280286 -0.003414 77 77 77
0.160000 0.273171 0.020286 76 76 76
0.160000 0.265498 0.040286 77 77 77
0.148396 0.300286 -0.359714 77 77 77
0.160000 0.300286 -0.354569 77 77 77
0.150757 0.300286 -0.259714 77 77 77
0.160000 0.293004 -0.259714 77 77 77
0.160000 0.300286 -0.266612 77 77 77
0.143240 0.300286 -0.099714 77 77 77
0.152534 0.300286 -0.079714 76 76 76
0.160000 0.282818 -0.079714 76 76 76
0.158076 0.300286 -0.059714 77 77 77
0.160000 0.297815 -0.059714 77 77 77
0.159225 0.300286 -0.039714 76 76 76
0.160000 0.299305 -0.039714 76 76 76
0.153995 0.300286 -0.019714 76 76 76
0.160000 0.292068 -0.019714 76 76 76
0.143075 0.300286 0.000286 76 76 76
0.150324 0.320286 -0.399714 78 78 78
0.160000 0.308528 -0.399714 77 77 77
0.160000 0.320286 -0.409390 78 78 78
0.160000 0.307607 -0.379714 76 76 76
0.160000 0.312543 -0.359714 77 77 77
0.154593 0.320286 -0.279714 76 76 76
0.160000 0.317080 -0.279714 76 76 76
0.160000 0.320286 -0.285845 76 76 76
0.140334 0.320286 -0.079714 76 76 76
0.148151 0.320286 -0.059714 76 76 76
0.147153 0.320286 -0.039714 76 76 76
0.160000 0.329962 -0.399714 78 78 78
0.160000 0.329136 -0.379714 77 77 77
0.160000 0.321136 -0.359714 77 77 77
0.160000 0.321896 -0.339714 77 77 77
0.160000 0.326270 -0.319714 76 76 76
0.160000 0.324133 -0.299714 76 76 76
0.162176 -0.219714 -0.059714 76 76 76
0.167921 -0.199714 -0.119714 76 76 76
0.174069 -0.199714 -0.099714 76 76 76
0.180000 -0.200652 -0.079714 76 76 76
0.180000 -0.199714 -0.082500 76 76 76
0.179281 -0.199714 -0.059714 76 76 76
0.180000 -0.199714 -0.067406 76 76 76
0.174936 -0.199714 -0.039714 76 76 76
0.167641 -0.199714 -0.019714 76 76 76
0.161122 -0.179714 -0.379714 77 77 77
0.169849 -0.179714 -0.359714 77 77 77
0.180000 -0.189037 -0.339714 76 76 76
0.180000 -0.179714 -0.356666 77 77 77
0.180000 -0.186953 -0.319714 77 77 77
0.180000 -0.185524 -0.299714 76 76 76
0.168523 -0.179714 -0.279714 77 77 77
0.180000 -0.179714 -0.284491 77 77 77
0.164227 -0.179714 -0.159714 76 76 76
0.170094 -0.179714 -0.139714 76 76 76
0.179753 -0.179714 -0.119714 76 76 76
0.180000 -0.190601 -0.099714 76 76 76
0.180000 -0.179714 -0.119173 76 76 76
0.180000 -0.198570 -0.059714 76 76 76
0.180000 -0.190801 -0.039714 76 76 76
0.177954 -0.179714 -0.019714 76 76 76
0.180000 -0.179714 -0.024390 76 76 76
0.165800 -0.179714 0.000286 76 76 76
0.163380 -0.179714 0.560286 77 77 77
0.161364 -0.179714 0.580286 76 76 76
0.178281 -0.159714 -0.379714 76 76 76
0.180000 -0.165143 -0.379714 76 76 76
0.180000 -0.159714 -0.381410 76 76 76
0.180000 -0.176259 -0.359714 77 77 77
0.180000 -0.176476 -0.279714 77 77 77
0.180000 -0.159714 -0.266480 77 77 77
0.162219 -0.159714 -0.199714 76 76 76
0.167240 -0.159714 -0.179714 76 76 76
0.173496 -0.159714 -0.159714 76 76 76
0.180000 -0.161838 -0.139714 76 76 76
0.180000 -0.159714 -0.142910 76 76 76
0.180000 -0.179235 -0.119714 76 76 76
0.180000 -0.174747 -0.019714 76 76 76
0.175073 -0.159714 0.000286 76 76 76
0.180000 -0.159714 -0.008321 76 76 76
0.162882 -0.159714 0.560286 76 76 76
0.180000 -0.155927 -0.379714 76 76 76
0.169638 -0.139714 -0.359714 77 77 77
0.180000 -0.139714 -0.369510 77 77 77
0.180000 -0.148688 -0.259714 76 76 76
0.166074 -0.139714 -0.239714 76 76 76
0.180000 -0.139714 -0.252026 76 76 76
0.166793 -0.139714 -0.219714 76 76 76
0.169347 -0.139714 -0.199714 76 76 76
0.174136 -0.139714 -0.179714 76 76 76
0.180000 -0.141655 -0.159714 76 76 76
0.180000 -0.139714 -0.162137 76 76 76
0.180000 -0.157159 0.000286 76 76 76
0.180000 -0.150289 0.020286 76 76 76
0.180000 -0.142049 0.040286 77 77 77
0.167983 -0.139714 0.060286 76 76 76
0.180000 -0.139714 0.050170 77 77 77
0.176010 -0.119714 -0.359714 76 76 76
0.180000 -0.119714 -0.362491 76 76 76
0.177572 -0.119714 -0.239714 76 76 76
0.180000 -0.119714 -0.241726 76 76 76
0.174636 -0.119714 -0.219714 76 76 76
0.176631 -0.119714 -0.199714 76 76 76
0.180000 -0.124457 -0.179714 76 76 76
0.180000 -0.119714 -0.187034 76 76 76
0.180000 -0.136937 0.060286 76 76 76
0.180000 -0.130228 0.080286 77 77 77
0.180000 -0.122558 0.100286 77 77 77
0.180000 -0.119714 0.103840 77 77 77
0.162017 -0.119714 0.440286 76 76 76
0.165006 -0.119714 0.460286 77 77 77
0.163477 -0.119714 0.480286 77 77 77
0.164155 -0.119714 0.500286 76 76 76
0.161639 -0.119714 0.520286 76 76 76
0.180000 -0.114093 -0.359714 76 76 76
0.180000 -0.099714 -0.354997 76 76 76
0.180000 -0.115215 -0.239714 76 76 76
0.180000 -0.103728 -0.219714 76 76 76
0.180000 -0.110652 -0.199714 76 76 76
0.180000 -0.107211 0.120286 77 77 77
0.180000 -0.099714 0.130350 77 77 77
0.169902 -0.099714 0.420286 76 76 76
0.180000 -0.106687 0.440286 77 77 77
0.180000 -0.099714 0.428804 77 77 77
0.180000 -0.109739 0.460286 76 76 76
0.180000 -0.109815 0.480286 77 77 77
0.180000 -0.107529 0.500286 77 77 77
0.180000 -0.101882 0.520286 77 77 77
0.163453 -0.099714 0.540286 76 76 76
0.180000 -0.099714 0.522117 77 77 77
0.167295 -0.079714 -0.339714 76 76 76
0.180000 -0.079714 -0.348803 76 76 76
0.180000 -0.091163 0.140286 77 77 77
0.180000 -0.079714 0.155212 77 77 77
0.180000 -0.084063 0.400286 76 76 76
0.180000 -0.079714 0.395404 76 76 76
0.180000 -0.095539 0.420286 77 77 77
0.170511 -0.079714 0.540286 76 76 76
0.180000 -0.079714 0.533223 76 76 76
0.180000 -0.068134 -0.339714 77 77 77
0.180000 -0.059714 -0.329627 76 76 76
0.180000 -0.074204 0.160286 77 77 77
0.180000 -0.059714 0.172462 77 77 77
0.180000 -0.059714 0.380764 76 76 76
0.170841 -0.059714 0.540286 76 76 76
0.180000 -0.059714 0.535550 76 76 76
0.180000 -0.039714 -0.321967 77 77 77
0.170079 -0.039714 -0.059714 77 77 77
0.180000 -0.050322 -0.039714 77 77 77
0.180000 -0.039714 -0.049794 77 77 77
0.180000 -0.050096 -0.019714 76 76 76
0.180000 -0.050168 0.000286 77 77 77
0.180000 -0.050267 0.020286 76 76 76
0.170038 -0.039714 0.040286 77 77 77
0.180000 -0.039714 0.030324 77 77 77
0.180000 -0.048400 0.180286 77 77 77
0.180000 -0.039714 0.185313 77 77 77
0.180000 -0.058829 0.380286 76 76 76
0.180000 -0.039714 0.371262 77 77 77
0.180000 -0.039714 0.531133 77 77 77
0.180000 -0.019714 -0.322905 77 77 77
0.170229 -0.019714 -0.119714 77 77 77
0.170033 -0.019714 -0.099714 77 77 77
0.180000 -0.030234 -0.079714 77 77 77
0.180000 -0.019714 -0.089747 77 77 77
0.180000 -0.029794 -0.059714 77 77 77
0.180000 -0.029752 0.040286 77 77 77
0.180000 -0.029853 0.060286 76 76 76
0.180000 -0.030084 0.080286 77 77 77
0.180000 -0.019714 0.090457 77 77 77
0.180000 -0.019714 0.193222 77 77 77
0.180000 -0.019714 0.369213 77 77 77
0.163240 -0.019714 0.460286 76 76 76
0.162661 -0.019714 0.480286 76 76 76
0.180000 -0.029977 0.520286 76 76 76
0.180000 -0.019714 0.511555 77 77 77
0.180000 0.000286 -0.324003 76 76 76
0.170206 0.000286 -0.159714 77 77 77
0.180000 -0.010274 -0.139714 76 76 76
0.180000 0.000286 -0.149920 77 77 77
0.180000 -0.009943 -0.119714 77 77 77
0.180000 -0.009747 -0.099714 77 77 77
0.180000 0.000286 0.090416 76 76 76
0.177810 0.000286 0.200286 77 77 77
0.180000 -0.000929 0.200286 77 77 77
0.180000 0.000286 0.200731 77 77 77
0.172285 0.000286 0.380286 77 77 77
0.180000 0.000286 0.374223 77 77 77
0.161792 0.000286 0.420286 77 77 77
0.180000 -0.002325 0.440286 76 76 76
0.180000 0.000286 0.437049 76 76 76
0.180000 -0.006133 0.460286 76 76 76
0.174423 0.000286 0.480286 76 76 76
0.180000 0.000286 0.467386 76 76 76
0.180000 -0.011348 0.500286 76 76 76
0.180000 0.000286 0.486597 76 76 76
0.180000 0.020286 -0.328874 76 76 76
0.180000 0.009695 -0.179714 77 77 77
0.180000 0.020286 -0.189937 77 77 77
0.180000 0.010080 -0.159714 77 77 77
0.169995 0.020286 0.100286 77 77 77
0.180000 0.010156 0.100286 76 76 76
0.180000 0.020286 0.111047 77 77 77
0.180000 0.020286 0.208631 76 76 76
0.180000 0.006303 0.380286 77 77 77
0.180000 0.014187 0.400286 76 76 76
0.180000 0.005818 0.420286 77 77 77
0.180000 0.004362 0.480286 76 76 76
0.180000 0.040286 -0.334195 76 76 76
0.180000 0.029858 -0.219714 77 77 77
0.180000 0.040286 -0.230207 77 77 77
0.180000 0.030063 -0.199714 77 77 77
0.180000 0.040286 0.110873 77 77 77
0.180000 0.040286 0.211730 77 77 77
0.174923 0.060286 -0.339714 77 77 77
0.180000 0.053152 -0.339714 77 77 77
0.180000 0.060286 -0.341717 77 77 77
0.180000 0.060286 -0.230145 77 77 77
0.180000 0.060286 0.110738 77 77 77
0.180000 0.060286 0.214163 77 77 77
0.169888 0.080286 -0.339714 76 76 76
0.180000 0.080286 -0.343404 76 76 76
0.180000 0.080286 -0.230106 77 77 77
0.180000 0.080286 0.110723 77 77 77
0.180000 0.080286 0.213412 77 77 77
0.169316 0.100286 -0.339714 76 76 76
0.180000 0.100286 -0.343579 77 77 77
0.180000 0.100286 -0.230075 76 76 76
0.180000 0.100286 0.110844 77 77 77
0.180000 0.100286 0.207887 76 76 76
0.173421 0.120286 -0.339714 77 77 77
0.180000 0.120286 -0.342564 77 77 77
0.180000 0.110341 -0.219714 77 77 77
0.180000 0.120286 -0.209769 77 77 77
0.180000 0.110367 0.100286 77 77 77
0.180000 0.120286 0.090367 77 77 77
0.180000 0.117544 0.200286 76 76 76
0.180000 0.120286 0.198943 76 76 76
0.178911 0.140286 -0.339714 76 76 76
0.180000 0.140286 -0.340187 76 76 76
0.180000 0.130904 -0.199714 77 77 77
0.180000 0.130798 -0.179714 76 76 76
0.180000 0.130579 -0.159714 77 77 77
0.180000 0.130418 -0.139714 77 77 77
0.170008 0.140286 -0.119714 77 77 77
0.180000 0.130294 -0.119714 77 77 77
0.180000 0.140286 -0.109722 77 77 77
0.180000 0.140286 0.090606 76 76 76
0.180000 0.140286 0.188789 76 76 76
0.180000 0.142117 -0.339714 76 76 76
0.180000 0.160286 -0.333262 77 77 77
0.180000 0.150789 -0.099714 76 76 76
0.180000 0.150680 -0.079714 77 77 77
0.180000 0.150671 -0.059714 77 77 77
0.180000 0.150515 -0.039714 77 77 77
0.180000 0.160286 -0.029944 77 77 77
0.180000 0.150480 0.060286 77 77 77
0.180000 0.160286 0.050480 77 77 77
0.180000 0.150825 0.080286 76 76 76
0.180000 0.154875 0.180286 76 76 76
0.180000 0.160286 0.176736 76 76 76
0.180000 0.180286 -0.334734 76 76 76
0.180000 0.170918 -0.019714 77 77 77
0.180000 0.170806 0.000286 77 77 77
0.180000 0.170752 0.020286 77 77 77
0.180000 0.170972 0.040286 77 77 77
0.180000 0.180286 0.163697 76 76 76
0.180000 0.200286 -0.335599 76 76 76
0.180000 0.183981 0.160286 76 76 76
0.180000 0.200286 0.144117 76 76 76
0.169260 0.220286 -0.339714 77 77 77
0.180000 0.212581 -0.339714 77 77 77
0.180000 0.220286 -0.341411 77 77 77
0.172412 0.220286 0.120286 77 77 77
0.180000 0.218484 0.120286 77 77 77
0.180000 0.220286 0.118132 77 77 77
0.180000 0.203422 0.140286 76 76 76
0.180000 0.240286 -0.346819 76 76 76
0.160110 0.240286 -0.219714 77 77 77
0.180000 0.231924 0.100286 77 77 77
0.180000 0.240286 0.089118 76 76 76
0.180000 0.260286 -0.347491 76 76 76
0.180000 0.251351 -0.239714 77 77 77
0.180000 0.260286 -0.251382 76 76 76
0.180000 0.249076 -0.219714 77 77 77
0.180000 0.250324 -0.199714 77 77 77
0.180000 0.251540 -0.179714 76 76 76
0.180000 0.252479 -0.159714 76 76 76
0.180000 0.251219 -0.139714 77 77 77
0.180000 0.259311 -0.119714 77 77 77
0.172745 0.260286 -0.099714 76 76 76
0.180000 0.256750 -0.099714 76 76 76
0.180000 0.260286 -0.091721 76 76 76
0.178865 0.260286 -0.059714 76 76 76
0.180000 0.259221 -0.059714 76 76 76
0.180000 0.260286 -0.063733 76 76 76
0.180000 0.260286 -0.055189 76 76 76
0.180000 0.253905 0.060286 77 77 77
0.180000 0.260286 0.049892 76 76 76
0.180000 0.245671 0.080286 76 76 76
0.180000 0.280286 -0.348711 77 77 77
0.177015 0.280286 -0.259714 76 76 76
0.180000 0.277440 -0.259714 76 76 76
0.180000 0.280286 -0.262299 76 76 76
0.161223 0.280286 -0.079714 76 76 76
0.180000 0.264018 -0.079714 76 76 76
0.169435 0.280286 -0.059714 76 76 76
0.169322 0.280286 -0.039714 76 76 76
0.180000 0.263958 -0.039714 76 76 76
0.166961 0.280286 -0.019714 76 76 76
0.180000 0.270984 -0.019714 76 76 76
0.180000 0.270703 0.000286 76 76 76
0.180000 0.269067 0.020286 77 77 77
0.180000 0.264062 0.040286 76 76 76
0.180000 0.300286 -0.347621 77 77 77
0.177275 0.300286 -0.279714 76 76 76
0.180000 0.297751 -0.279714 76 76 76
0.180000 0.300286 -0.282794 76 76 76
0.180000 0.308440 -0.399714 77 77 77
0.180000 0.320286 -0.409344 80 80 80
0.168850 0.320286 -0.379714 77 77 77
0.180000 0.320286 -0.390085 80 80 80
0.180000 0.310246 -0.359714 77 77 77
0.180000 0.320286 -0.362662 79 79 79
0.174193 0.320286 -0.319714 76 76 76
0.180000 0.315562 -0.319714 76 76 76
0.180000 0.320286 -0.328491 76 76 76
0.170706 0.320286 -0.299714 76 76 76
0.180000 0.314245 -0.299714 76 76 76
0.180000 0.329915 -0.399714 80 80 80
0.180000 0.323234 -0.359714 79 79 79
0.180000 0.321878 -0.339714 77 77 77
0.180918 -0.199714 -0.079714 76 76 76
0.195204 -0.179714 -0.359714 77 77 77
0.200000 -0.180004 -0.359714 77 77 77
0.200000 -0.179714 -0.361095 77 77 77
0.200000 -0.186696 -0.339714 77 77 77
0.200000 -0.183885 -0.319714 77 77 77
0.200000 -0.180441 -0.299714 77 77 77
0.200000 -0.179714 -0.297587 77 77 77
0.186646 -0.179714 -0.099714 76 76 76
0.190329 -0.179714 -0.079714 76 76 76
0.190680 -0.179714 -0.059714 76 76 76
0.186401 -0.179714 -0.039714 76 76 76
0.193032 -0.159714 -0.379714 76 76 76
0.200000 -0.159714 -0.376690 76 76 76
0.200000 -0.169675 -0.279714 76 76 76
0.200000 -0.159714 -0.272600 76 76 76
0.181113 -0.159714 -0.139714 76 76 76
0.187246 -0.159714 -0.119714 76 76 76
0.192171 -0.159714 -0.099714 76 76 76
0.195172 -0.159714 -0.079714 76 76 76
0.195067 -0.159714 -0.059714 77 77 77
0.193412 -0.159714 -0.039714 76 76 76
0.186612 -0.159714 -0.019714 76 76 76
0.200000 -0.139714 -0.370205 77 77 77
0.193004 -0.139714 -0.259714 76 76 76
0.200000 -0.139714 -0.263098 76 76 76
0.180779 -0.139714 -0.159714 76 76 76
0.186642 -0.139714 -0.139714 76 76 76
0.192491 -0.139714 -0.119714 76 76 76
0.199392 -0.139714 -0.099714 76 76 76
0.200000 -0.147425 -0.079714 76 76 76
0.200000 -0.139714 -0.096961 76 76 76
0.200000 -0.151711 -0.059714 77 77 77
0.200000 -0.151861 -0.039714 76 76 76
0.200000 -0.151259 -0.019714 76 76 76
0.200000 -0.149542 0.000286 77 77 77
0.200000 -0.144682 0.020286 77 77 77
0.188321 -0.139714 0.040286 77 77 77
0.200000 -0.139714 0.032580 77 77 77
0.200000 -0.119714 -0.363033 76 76 76
0.200000 -0.132085 -0.259714 76 76 76
0.200000 -0.119714 -0.254097 77 77 77
0.181923 -0.119714 -0.179714 76 76 76
0.187389 -0.119714 -0.159714 76 76 76
0.192649 -0.119714 -0.139714 76 76 76
0.200000 -0.120316 -0.119714 76 76 76
0.200000 -0.119714 -0.120388 76 76 76
0.200000 -0.138178 -0.099714 76 76 76
0.200000 -0.136213 0.040286 77 77 77
0.200000 -0.133048 0.060286 77 77 77
0.200000 -0.127963 0.080286 77 77 77
0.187752 -0.119714 0.100286 77 77 77
0.200000 -0.119714 0.093838 77 77 77
0.200000 -0.113379 -0.359714 76 76 76
0.200000 -0.099714 -0.356737 76 76 76
0.189369 -0.099714 -0.239714 76 76 76
0.200000 -0.099714 -0.246523 76 76 76
0.181382 -0.099714 -0.219714 76 76 76
0.184177 -0.099714 -0.199714 76 76 76
0.189631 -0.099714 -0.179714 76 76 76
0.197643 -0.099714 -0.159714 76 76 76
0.200000 -0.111861 -0.139714 76 76 76
0.200000 -0.099714 -0.156576 76 76 76
0.200000 -0.114786 0.100286 77 77 77
0.200000 -0.106869 0.120286 77 77 77
0.200000 -0.099714 0.129508 77 77 77
0.191761 -0.099714 0.440286 77 77 77
0.193745 -0.099714 0.460286 76 76 76
0.192578 -0.099714 0.480286 77 77 77
0.190845 -0.099714 0.500286 77 77 77
0.181546 -0.099714 0.520286 77 77 77
0.200000 -0.079714 -0.357159 76 76 76
0.199130 -0.079714 -0.239714 76 76 76
0.200000 -0.079714 -0.240236 76 76 76
0.189706 -0.079714 -0.219714 76 76 76
0.192581 -0.079714 -0.199714 76 76 76
0.200000 -0.091577 -0.179714 76 76 76
0.200000 -0.079714 -0.193809 76 76 76
0.200000 -0.098752 -0.159714 76 76 76
0.200000 -0.090643 0.140286 77 77 77
0.200000 -0.079714 0.159137 77 77 77
0.200000 -0.081013 0.400286 77 77 77
0.200000 -0.079714 0.398654 77 77 77
0.200000 -0.089016 0.420286 77 77 77
0.200000 -0.095454 0.440286 77 77 77
0.200000 -0.096430 0.460286 76 76 76
0.200000 -0.095489 0.480286 77 77 77
0.200000 -0.093667 0.500286 77 77 77
0.195444 -0.079714 0.520286 77 77 77
