ply
format ascii 1.0
element vertex 1127
property float x
property float y
property float z
property uchar red
property uchar green
property uchar blue
end_header
-10.359567 13.628101 -7.452662 154 154 154
-10.359567 13.515741 -7.099793 156 156 156
-10.359567 13.628101 -7.211395 156 156 156
-10.523914 13.828101 -8.699793 154 154 154
-10.395441 13.828101 -8.499793 153 153 153
-10.359567 13.796060 -8.499793 153 153 153
-10.359567 13.828101 -8.527610 153 153 153
-10.359567 13.809817 -8.299793 154 154 154
-10.359567 13.828101 -8.333737 154 154 154
-10.359567 13.815118 -8.099793 155 155 155
-10.380869 13.828101 -7.899793 154 154 154
-10.359567 13.755017 -7.899793 154 154 154
-10.394206 13.828101 -7.699793 154 154 154
-10.359567 13.828101 -7.867281 154 154 154
-10.440790 13.828101 -7.499793 155 155 155
-10.359567 13.680730 -7.499793 154 154 154
-10.359567 13.828101 -7.653686 154 154 154
-10.359567 13.716499 -7.299793 156 156 156
-10.359567 13.828101 -7.418570 155 155 155
-10.369599 14.028101 -8.499793 154 154 154
-10.359567 14.028101 -8.506661 154 154 154
-10.359567 14.028101 -8.459066 154 154 154
-10.446996 14.028101 -7.699793 154 154 154
-10.359567 13.869848 -7.699793 154 154 154
-10.359567 13.909324 -7.499793 155 155 155
-10.359567 14.028101 -7.612365 154 154 154
-10.359567 14.034923 -8.499793 154 154 154
-10.462200 14.228101 -8.299793 155 155 155
-10.359567 14.112724 -8.299793 153 153 153
-10.359567 14.228101 -8.331485 155 155 155
-10.362902 14.228101 -8.099793 154 154 154
-10.359567 14.199449 -8.099793 154 154 154
-10.445316 14.228101 -7.899793 155 155 155
-10.359567 14.228101 -8.095636 154 154 154
-10.359567 14.115529 -7.699793 154 154 154
-10.359567 14.228101 -7.814044 155 155 155
-10.539684 14.428101 -8.499793 155 155 155
-10.393578 14.428101 -8.299793 154 154 154
-10.359567 14.428101 -8.368908 154 154 154
-10.433231 14.428101 -8.099793 156 156 156
-10.359567 14.233420 -8.099793 154 154 154
-10.359567 14.428101 -8.257104 154 154 154
-10.359567 14.313849 -7.899793 155 155 155
-10.359567 14.428101 -8.026129 156 156 156
-10.427696 14.628101 -8.299793 155 155 155
-10.359567 14.474993 -8.299793 154 154 154
-10.359567 14.501765 -8.099793 156 156 156
-10.359567 14.628101 -8.231664 155 155 155
-10.546509 14.828101 -8.899793 155 155 155
-10.374950 14.828101 -8.699793 155 155 155
-10.359567 14.696485 -8.699793 155 155 155
-10.359567 14.828101 -8.721675 155 155 155
-10.420116 14.828101 -8.499793 156 156 156
-10.359567 14.828101 -8.683042 155 155 155
-10.359567 14.696229 -8.299793 155 155 155
-10.359567 14.828101 -8.439244 156 156 156
-10.365010 15.028101 -8.899793 154 154 154
-10.359567 15.021954 -8.899793 154 154 154
-10.359567 15.028101 -8.905388 154 154 154
-10.424898 15.028101 -8.699793 156 156 156
-10.359567 14.843226 -8.699793 155 155 155
-10.359567 15.028101 -8.895657 154 154 154
-10.359567 14.888649 -8.499793 156 156 156
-10.359567 15.028101 -8.634462 156 156 156
-10.413867 15.228101 -8.899793 156 156 156
-10.359567 15.033451 -8.899793 154 154 154
-10.359567 15.093432 -8.699793 156 156 156
-10.359567 15.228101 -8.845493 156 156 156
-10.417561 15.428101 -9.099793 155 155 155
-10.359567 15.282401 -8.899793 156 156 156
-10.359567 15.428101 -9.041799 155 155 155
-10.426571 15.628101 -9.299793 153 153 153
-10.359567 15.628101 -9.366797 153 153 153
-10.359567 15.484965 -9.499793 156 156 156
-10.470419 15.628101 -9.499793 155 155 155
-10.359567 15.486095 -9.099793 155 155 155
-10.359567 15.628101 -9.232789 153 153 153
-10.359567 15.695104 -9.299793 153 153 153
-10.359567 15.828101 -9.410631 153 153 153
-10.359567 15.738939 -9.499793 153 153 153
-10.448729 15.828101 -9.499793 153 153 153
-10.359567 15.917263 -9.499793 153 153 153
-10.159567 -2.371899 -9.400391 155 155 155
-10.159567 -2.471302 -9.499793 155 155 155
-10.258970 -2.371899 -9.499793 155 155 155
-10.203224 -2.171899 -9.299793 154 154 154
-10.159567 -2.215556 -9.299793 154 154 154
-10.159567 -2.171899 -9.256136 154 154 154
-10.233951 -1.971899 -9.099793 155 155 155
-10.159567 -2.046283 -9.099793 155 155 155
-10.159567 -1.971899 -9.025410 155 155 155
-10.213276 -1.771899 -8.899793 155 155 155
-10.159567 -1.825608 -8.899793 155 155 155
-10.159567 -1.771899 -8.846084 155 155 155
-10.159567 -1.571899 -8.834474 156 156 156
-10.169390 -1.371899 -8.899793 155 155 155
-10.159567 -1.378790 -8.899793 155 155 155
-10.159567 -1.371899 -8.911076 155 155 155
-10.353352 -1.371899 -8.699793 155 155 155
-10.159567 -1.419709 -8.699793 154 154 154
-10.159567 -1.371899 -8.889351 155 155 155
-10.170858 -1.371899 -8.499793 155 155 155
-10.159567 -1.383190 -8.499793 155 155 155
-10.159567 -1.371899 -8.488502 155 155 155
-10.159567 -1.369125 -8.899793 155 155 155
-10.161642 -1.171899 -8.699793 153 153 153
-10.159567 -1.181593 -8.699793 153 153 153
-10.159567 -1.171899 -8.702361 153 153 153
-10.176157 -1.171899 -8.499793 154 154 154
-10.159567 -1.250290 -8.499793 154 154 154
-10.163711 -1.171899 -8.299793 154 154 154
-10.159567 -1.176043 -8.299793 154 154 154
-10.159567 -1.171899 -8.370639 154 154 154
-10.159567 -1.171899 -8.295649 154 154 154
-10.294174 -0.971899 -8.699793 154 154 154
-10.159567 -1.169058 -8.699793 153 153 153
-10.325941 -0.971899 -8.499793 154 154 154
-10.159567 -1.147832 -8.499793 154 154 154
-10.288236 -0.971899 -8.299793 154 154 154
-10.206004 -0.971899 -8.099793 154 154 154
-10.159567 -1.018337 -8.099793 154 154 154
-10.159567 -0.971899 -8.053356 154 154 154
-10.232098 -0.771899 -8.499793 155 155 155
-10.159567 -0.838045 -8.499793 155 155 155
-10.159567 -0.771899 -8.570848 155 155 155
-10.159567 -0.813349 -8.299793 154 154 154
-10.208054 -0.771899 -8.099793 155 155 155
-10.159567 -0.813275 -8.099793 155 155 155
-10.159567 -0.688764 -8.499793 155 155 155
-10.159567 -0.717925 -8.299793 154 154 154
-10.159567 -0.711576 -8.099793 155 155 155
-10.218092 -0.571899 -7.899793 154 154 154
-10.159567 -0.571899 -7.967621 154 154 154
-10.200974 -0.571899 -7.699793 154 154 154
-10.159567 -0.613306 -7.699793 154 154 154
-10.159567 -0.571899 -7.846962 154 154 154
-10.159567 -0.571899 -7.658386 154 154 154
-10.305138 -0.371899 -8.299793 156 156 156
-10.159567 -0.474616 -8.099793 154 154 154
-10.159567 -0.371899 -8.160187 155 155 155
-10.233071 -0.371899 -7.699793 153 153 153
-10.159567 -0.442036 -7.699793 153 153 153
-10.198978 -0.371899 -7.499793 155 155 155
-10.159567 -0.411310 -7.499793 155 155 155
-10.159567 -0.371899 -7.626812 153 153 153
-10.159567 -0.371899 -7.460382 155 155 155
-10.242261 -0.171899 -8.099793 154 154 154
-10.159567 -0.235083 -8.099793 154 154 154
-10.159567 -0.171899 -8.027892 154 154 154
-10.197285 -0.171899 -7.499793 155 155 155
-10.159567 -0.246605 -7.499793 155 155 155
-10.194227 -0.171899 -7.299793 154 154 154
-10.159567 -0.206559 -7.299793 154 154 154
-10.159567 -0.171899 -7.417576 155 155 155
-10.159567 -0.171899 -7.265133 154 154 154
-10.293209 0.028101 -8.499793 155 155 155
-10.302730 0.028101 -8.299793 155 155 155
-10.205319 0.028101 -8.099793 155 155 155
-10.189913 0.028101 -7.899793 154 154 154
-10.159567 0.010330 -7.899793 154 154 154
-10.159567 0.028101 -7.888822 154 154 154
-10.206903 0.028101 -7.299793 154 154 154
-10.159567 -0.035440 -7.299793 154 154 154
-10.221687 0.028101 -7.099793 154 154 154
-10.159567 -0.034019 -7.099793 154 154 154
-10.159567 0.028101 -7.264178 154 154 154
-10.159567 0.028101 -7.037673 154 154 154
-10.164103 0.228101 -8.299793 154 154 154
-10.159567 0.225148 -8.299793 154 154 154
-10.159567 0.228101 -8.304202 154 154 154
-10.159967 0.228101 -8.099793 155 155 155
-10.159567 0.225371 -8.099793 155 155 155
-10.159567 0.041321 -7.899793 154 154 154
-10.226226 0.228101 -7.099793 153 153 153
-10.159567 0.145111 -7.099793 153 153 153
-10.183638 0.228101 -6.899793 156 156 156
-10.159567 0.204030 -6.899793 156 156 156
-10.159567 0.228101 -6.959754 156 156 156
-10.159567 0.228101 -6.875722 156 156 156
-10.159567 0.428101 -8.459858 155 155 155
-10.208089 0.428101 -6.899793 153 153 153
-10.159567 0.305140 -6.899793 156 156 156
-10.217696 0.428101 -6.699793 155 155 155
-10.159567 0.369972 -6.699793 155 155 155
-10.159567 0.428101 -6.830257 153 153 153
-10.159567 0.428101 -6.641664 155 155 155
-10.159567 0.617349 -8.299793 154 154 154
-10.317151 0.628101 -8.099793 155 155 155
-10.159567 0.615396 -8.099793 155 155 155
-10.348495 0.628101 -7.899793 154 154 154
-10.159567 0.628101 -8.079199 155 155 155
-10.340273 0.628101 -7.699793 154 154 154
-10.217197 0.628101 -6.699793 154 154 154
-10.159567 0.546863 -6.699793 154 154 154
-10.218730 0.628101 -6.499793 154 154 154
-10.159567 0.568938 -6.499793 154 154 154
-10.159567 0.628101 -6.619756 154 154 154
-10.159567 0.628101 -6.440630 154 154 154
-10.209250 0.828101 -7.899793 154 154 154
-10.159567 0.787315 -7.899793 154 154 154
-10.159567 0.828101 -7.844583 154 154 154
-10.200374 0.828101 -6.499793 154 154 154
-10.159567 0.763492 -6.499793 154 154 154
-10.223468 0.828101 -6.299793 154 154 154
-10.159567 0.764200 -6.299793 154 154 154
-10.159567 0.828101 -6.439952 154 154 154
-10.159567 0.828101 -6.235892 154 154 154
-10.234623 1.028101 -8.099793 154 154 154
-10.159567 0.952847 -8.099793 154 154 154
-10.159567 1.028101 -8.154556 154 154 154
-10.250055 1.028101 -7.899793 153 153 153
-10.159567 1.028101 -8.014495 154 154 154
-10.159567 1.028101 -7.821792 153 153 153
-10.266769 1.028101 -6.499793 154 154 154
-10.195443 1.028101 -6.299793 154 154 154
-10.159567 0.966638 -6.299793 154 154 154
-10.226704 1.028101 -6.099793 153 153 153
-10.159567 0.960964 -6.099793 153 153 153
-10.159567 1.028101 -6.241413 154 154 154
-10.159567 1.028101 -6.032657 153 153 153
-10.300278 1.228101 -8.099793 154 154 154
-10.159567 1.094949 -8.099793 154 154 154
-10.359276 1.228101 -7.899793 155 155 155
-10.159567 1.162692 -7.699793 154 154 154
-10.159567 1.228101 -7.579684 154 154 154
-10.287023 1.228101 -6.299793 154 154 154
-10.159567 1.228101 -6.142520 154 154 154
-10.243840 1.228101 -5.899793 154 154 154
-10.159567 1.143827 -5.899793 154 154 154
-10.159567 1.228101 -5.815520 154 154 154
-10.159567 1.360988 -8.099793 153 153 153
-10.159567 1.428101 -8.231038 153 153 153
-10.321946 1.428101 -7.899793 155 155 155
-10.159567 1.388473 -7.899793 153 153 153
-10.159567 1.385285 -7.699793 154 154 154
-10.264843 1.428101 -6.099793 154 154 154
-10.159567 1.262729 -6.099793 154 154 154
-10.159567 1.412006 -5.899793 153 153 153
-10.233699 1.428101 -5.699793 154 154 154
-10.159567 1.353969 -5.699793 154 154 154
-10.159567 1.428101 -5.880264 153 153 153
-10.159567 1.428101 -5.625662 154 154 154
-10.159567 1.628101 -8.204458 154 154 154
-10.318055 1.628101 -7.699793 154 154 154
-10.218513 1.628101 -5.899793 153 153 153
-10.159567 1.628101 -5.799567 154 154 154
-10.247073 1.628101 -5.499793 154 154 154
-10.159567 1.540595 -5.499793 154 154 154
-10.159567 1.628101 -5.412288 154 154 154
-10.159567 1.709313 -8.099793 154 154 154
-10.159567 1.828101 -7.933466 153 153 153
-10.230150 1.828101 -7.499793 153 153 153
-10.215716 1.828101 -5.699793 153 153 153
-10.159567 1.735664 -5.699793 153 153 153
-10.209195 1.828101 -5.499793 155 155 155
-10.159567 1.828101 -5.622729 153 153 153
-10.240708 1.828101 -5.299793 155 155 155
-10.159567 1.746960 -5.299793 155 155 155
-10.159567 1.828101 -5.218652 155 155 155
-10.180143 2.028101 -8.299793 153 153 153
-10.159567 1.952752 -8.299793 153 153 153
-10.159567 2.028101 -8.331856 153 153 153
-10.358815 2.028101 -8.099793 153 153 153
-10.159567 2.028101 -8.226610 153 153 153
-10.355455 2.028101 -7.899793 153 153 153
-10.159567 2.028101 -8.022489 154 154 154
-10.333809 2.028101 -5.699793 154 154 154
-10.216838 2.028101 -5.499793 155 155 155
-10.159567 1.940720 -5.499793 155 155 155
-10.199321 2.028101 -5.299793 154 154 154
-10.159567 2.028101 -5.398209 154 154 154
-10.252044 2.028101 -5.099793 155 155 155
-10.159567 1.935624 -5.099793 155 155 155
-10.159567 2.028101 -5.007316 155 155 155
-10.263004 2.228101 -8.299793 154 154 154
-10.159567 2.228101 -8.325340 155 155 155
-10.159567 2.228101 -8.142622 154 154 154
-10.275140 2.228101 -7.899793 155 155 155
-10.159567 2.228101 -8.092946 154 154 154
-10.306060 2.228101 -7.299793 154 154 154
-10.276105 2.228101 -5.499793 155 155 155
-10.162637 2.228101 -5.299793 154 154 154
-10.159567 2.217705 -5.299793 154 154 154
-10.227487 2.228101 -5.099793 155 155 155
-10.159567 2.228101 -5.294639 154 154 154
-10.254509 2.228101 -4.899793 155 155 155
-10.159567 2.133159 -4.899793 155 155 155
-10.159567 2.228101 -4.804851 155 155 155
-10.159567 2.252425 -8.299793 155 155 155
-10.161950 2.428101 -8.099793 153 153 153
-10.159567 2.381116 -8.099793 153 153 153
-10.159567 2.428101 -8.102084 153 153 153
-10.222469 2.428101 -7.899793 153 153 153
-10.159567 2.407534 -7.899793 153 153 153
-10.159567 2.428101 -8.082448 153 153 153
-10.159567 2.428101 -7.856293 153 153 153
-10.243317 2.428101 -5.299793 153 153 153
-10.159567 2.428101 -5.158043 154 154 154
-10.220827 2.428101 -4.899793 155 155 155
-10.249799 2.428101 -4.699793 156 156 156
-10.159567 2.337869 -4.699793 156 156 156
-10.159567 2.428101 -4.609561 156 156 156
-10.184541 2.628101 -8.099793 154 154 154
-10.159567 2.503305 -8.099793 153 153 153
-10.197461 2.628101 -7.899793 152 152 152
-10.159567 2.628101 -7.858928 152 152 152
-10.350960 2.628101 -5.299793 154 154 154
-10.228003 2.628101 -5.099793 154 154 154
-10.159567 2.485365 -5.099793 154 154 154
-10.159567 2.628101 -4.947871 154 154 154
-10.230476 2.628101 -4.699793 154 154 154
-10.259010 2.628101 -4.499793 156 156 156
-10.159567 2.528658 -4.499793 156 156 156
-10.159567 2.628101 -4.400350 156 156 156
-10.313832 2.828101 -7.899793 154 154 154
-10.159567 2.828101 -7.826940 153 153 153
-10.290527 2.828101 -5.099793 153 153 153
-10.201367 2.828101 -4.899793 154 154 154
-10.159567 2.693686 -4.899793 154 154 154
-10.215161 2.828101 -4.699793 153 153 153
-10.159567 2.828101 -4.835451 154 154 154
-10.245964 2.828101 -4.499793 155 155 155
-10.159567 2.828101 -4.413396 155 155 155
-10.357984 3.028101 -8.499793 154 154 154
-10.254337 3.028101 -8.099793 154 154 154
-10.230858 3.028101 -7.899793 153 153 153
-10.159567 3.028101 -7.822276 153 153 153
-10.229079 3.028101 -4.899793 153 153 153
-10.159567 3.028101 -4.751222 153 153 153
-10.226575 3.028101 -4.499793 154 154 154
-10.243706 3.028101 -4.299793 154 154 154
-10.159567 2.943961 -4.299793 154 154 154
-10.159567 3.028101 -4.215654 154 154 154
-10.159567 3.228101 -7.788515 153 153 153
-10.319145 3.228101 -4.899793 153 153 153
-10.200359 3.228101 -4.699793 153 153 153
-10.159567 3.109808 -4.699793 153 153 153
-10.159567 3.228101 -4.596239 154 154 154
-10.228282 3.228101 -4.299793 154 154 154
-10.248704 3.228101 -4.099793 155 155 155
-10.159567 3.138964 -4.099793 155 155 155
-10.159567 3.228101 -4.010656 155 155 155
-10.298907 3.428101 -7.899793 154 154 154
-10.159567 3.428101 -7.829202 154 154 154
-10.263457 3.428101 -4.699793 154 154 154
-10.180297 3.428101 -4.499793 153 153 153
-10.159567 3.346523 -4.499793 153 153 153
-10.159567 3.428101 -4.460523 153 153 153
-10.237183 3.428101 -4.099793 155 155 155
-10.252739 3.428101 -3.899793 153 153 153
-10.159567 3.334929 -3.899793 153 153 153
-10.159567 3.428101 -3.806621 153 153 153
-10.200850 3.628101 -7.899793 153 153 153
-10.159567 3.547475 -7.899793 153 153 153
-10.159567 3.628101 -7.919845 153 153 153
-10.198656 3.628101 -7.699793 152 152 152
-10.159567 3.617651 -7.699793 152 152 152
-10.159567 3.628101 -7.725823 152 152 152
-10.320695 3.628101 -7.499793 154 154 154
-10.159567 3.628101 -7.689796 152 152 152
-10.199609 3.628101 -4.499793 154 154 154
-10.159567 3.628101 -4.375794 153 153 153
-10.243587 3.628101 -3.899793 155 155 155
-10.252523 3.628101 -3.699793 154 154 154
-10.159567 3.535145 -3.699793 154 154 154
-10.159567 3.628101 -3.606837 154 154 154
-10.159567 3.771506 -8.099793 154 154 154
-10.159567 3.828101 -8.181319 154 154 154
-10.159567 3.634468 -7.699793 152 152 152
-10.193882 3.828101 -4.299793 155 155 155
-10.159567 3.724193 -4.299793 153 153 153
-10.159567 3.828101 -4.250895 155 155 155
-10.225749 3.828101 -3.899793 154 154 154
-10.244939 3.828101 -3.699793 156 156 156
-10.258213 3.828101 -3.499793 155 155 155
-10.159567 3.729455 -3.499793 155 155 155
-10.159567 3.828101 -3.401148 155 155 155
-10.172672 4.028101 -8.699793 154 154 154
-10.159567 4.023846 -8.699793 154 154 154
-10.159567 4.028101 -8.704051 154 154 154
-10.212638 4.028101 -8.499793 152 152 152
-10.159567 3.986051 -8.499793 152 152 152
-10.159567 4.021498 -8.299793 154 154 154
-10.279557 4.028101 -4.299793 154 154 154
-10.175178 4.028101 -4.099793 154 154 154
-10.159567 3.996504 -4.099793 154 154 154
-10.159567 4.028101 -4.079837 154 154 154
-10.236901 4.028101 -3.699793 154 154 154
-10.250529 4.028101 -3.499793 154 154 154
-10.159567 4.028101 -3.408831 154 154 154
-10.159567 4.033660 -8.699793 154 154 154
-10.217480 4.228101 -8.499793 154 154 154
-10.159567 4.106425 -8.499793 152 152 152
-10.211205 4.228101 -8.299793 153 153 153
-10.159567 4.039969 -8.299793 154 154 154
-10.204763 4.228101 -8.099793 154 154 154
-10.159567 4.166022 -8.099793 154 154 154
-10.205614 4.228101 -7.899793 153 153 153
-10.159567 4.146493 -7.899793 153 153 153
-10.159567 4.228101 -7.790513 155 155 155
-10.351174 4.228101 -4.299793 154 154 154
-10.216708 4.228101 -4.099793 154 154 154
-10.159567 4.228101 -3.991849 154 154 154
-10.244586 4.228101 -3.499793 153 153 153
-10.253932 4.228101 -3.299793 157 157 157
-10.159567 4.133736 -3.299793 157 157 157
-10.159567 4.228101 -3.205428 157 157 157
-10.188689 4.428101 -8.299793 154 154 154
-10.159567 4.397345 -8.299793 154 154 154
-10.159567 4.428101 -8.308102 154 154 154
-10.211824 4.428101 -8.099793 155 155 155
-10.159567 4.351816 -8.099793 155 155 155
-10.159567 4.294792 -7.899793 153 153 153
-10.248870 4.428101 -4.099793 153 153 153
-10.161284 4.428101 -3.899793 154 154 154
-10.159567 4.421049 -3.899793 154 154 154
-10.159567 4.428101 -3.895320 154 154 154
-10.236782 4.428101 -3.499793 154 154 154
-10.246235 4.428101 -3.299793 154 154 154
-10.256682 4.428101 -3.099793 154 154 154
-10.159567 4.330986 -3.099793 154 154 154
-10.159567 4.428101 -3.002678 154 154 154
-10.159567 4.440522 -8.299793 154 154 154
-10.159567 4.628101 -8.153707 154 154 154
-10.290445 4.628101 -4.099793 154 154 154
-10.206408 4.628101 -3.899793 153 153 153
-10.159567 4.628101 -3.774162 153 153 153
-10.244358 4.628101 -3.299793 154 154 154
-10.251280 4.628101 -3.099793 154 154 154
-10.258838 4.628101 -2.899793 156 156 156
-10.159567 4.528830 -2.899793 156 156 156
-10.159567 4.628101 -2.800522 156 156 156
-10.159567 4.828101 -8.214891 153 153 153
-10.166094 4.828101 -7.699793 154 154 154
-10.159567 4.818667 -7.699793 154 154 154
-10.159567 4.828101 -7.708123 154 154 154
-10.159567 4.828101 -7.693434 154 154 154
-10.352446 4.828101 -4.099793 153 153 153
-10.243600 4.828101 -3.899793 153 153 153
-10.183704 4.828101 -3.699793 154 154 154
-10.159567 4.739112 -3.699793 154 154 154
-10.159567 4.828101 -3.661250 154 154 154
-10.232986 4.828101 -3.299793 154 154 154
-10.250179 4.828101 -3.099793 154 154 154
-10.254792 4.828101 -2.899793 154 154 154
-10.159567 4.828101 -2.804569 154 154 154
-10.237894 5.028101 -8.299793 154 154 154
-10.159567 4.974332 -8.099793 154 154 154
-10.314214 5.028101 -7.899793 153 153 153
-10.159567 5.028101 -8.015234 154 154 154
-10.343709 5.028101 -7.699793 154 154 154
-10.159567 4.837044 -7.699793 154 154 154
-10.267210 5.028101 -3.899793 153 153 153
-10.191685 5.028101 -3.699793 153 153 153
-10.159567 5.028101 -3.627415 153 153 153
-10.241764 5.028101 -3.099793 155 155 155
-10.251034 5.028101 -2.899793 155 155 155
-10.256867 5.028101 -2.699793 156 156 156
-10.159567 4.930801 -2.699793 156 156 156
-10.159567 5.028101 -2.602493 156 156 156
-10.225907 5.228101 -8.499793 154 154 154
-10.159567 5.103578 -8.499793 154 154 154
-10.159567 5.228101 -8.538194 154 154 154
-10.159567 5.228101 -8.358177 154 154 154
-10.159567 5.228101 -8.055313 154 154 154
-10.286078 5.228101 -3.899793 154 154 154
-10.198897 5.228101 -3.699793 153 153 153
-10.159567 5.228101 -3.611523 153 153 153
-10.238843 5.228101 -3.099793 154 154 154
-10.244718 5.228101 -2.899793 154 154 154
-10.253996 5.228101 -2.699793 154 154 154
-10.159567 5.228101 -2.605364 154 154 154
-10.171680 5.428101 -8.499793 155 155 155
-10.159567 5.428101 -8.522276 155 155 155
-10.159567 5.428101 -8.361607 155 155 155
-10.159567 5.428101 -8.061048 154 154 154
-10.357119 5.428101 -7.699793 154 154 154
-10.331895 5.428101 -3.899793 154 154 154
-10.217178 5.428101 -3.699793 153 153 153
-10.159567 5.428101 -3.540194 154 154 154
-10.243911 5.428101 -2.899793 154 154 154
-10.250357 5.428101 -2.699793 153 153 153
-10.256178 5.428101 -2.499793 154 154 154
-10.159567 5.331490 -2.499793 154 154 154
-10.258559 5.428101 -2.299793 155 155 155
-10.159567 5.329109 -2.299793 155 155 155
-10.159567 5.428101 -2.200801 155 155 155
-10.159567 5.504854 -8.499793 155 155 155
-10.230361 5.628101 -7.899793 154 154 154
-10.159567 5.628101 -8.010065 154 154 154
-10.229142 5.628101 -3.699793 153 153 153
-10.168721 5.628101 -3.499793 152 152 152
-10.159567 5.554819 -3.499793 152 152 152
-10.159567 5.628101 -3.481914 152 152 152
-10.248117 5.628101 -2.699793 154 154 154
-10.253874 5.628101 -2.499793 155 155 155
-10.257465 5.628101 -2.299793 154 154 154
-10.159567 5.628101 -2.201895 154 154 154
-10.348623 5.828101 -7.899793 154 154 154
-10.159567 5.707203 -7.899793 154 154 154
-10.159567 5.790676 -7.699793 154 154 154
-10.211575 5.828101 -7.499793 153 153 153
-10.159567 5.788570 -7.499793 153 153 153
-10.159567 5.828101 -7.402271 153 153 153
-10.278183 5.828101 -3.699793 153 153 153
-10.182984 5.828101 -3.499793 153 153 153
-10.159567 5.828101 -3.439019 153 153 153
-10.246140 5.828101 -2.699793 154 154 154
-10.252660 5.828101 -2.499793 153 153 153
-10.256321 5.828101 -2.299793 155 155 155
-10.258165 5.828101 -2.099793 155 155 155
-10.159567 5.729503 -2.099793 155 155 155
-10.159567 5.828101 -2.001195 155 155 155
-10.355810 6.028101 -8.499793 154 154 154
-10.189330 6.028101 -7.899793 155 155 155
-10.159567 5.884194 -7.699793 154 154 154
-10.159567 6.028101 -7.819916 155 155 155
-10.159567 5.959150 -7.499793 155 155 155
-10.279320 6.028101 -7.299793 153 153 153
-10.301387 6.028101 -3.699793 153 153 153
-10.177626 6.028101 -3.499793 154 154 154
-10.159567 6.028101 -3.444147 154 154 154
-10.244612 6.028101 -2.699793 154 154 154
-10.251684 6.028101 -2.499793 154 154 154
-10.255559 6.028101 -2.299793 154 154 154
-10.256301 6.028101 -2.099793 154 154 154
-10.258141 6.028101 -1.899793 155 155 155
-10.159567 5.929527 -1.899793 155 155 155
-10.159567 6.028101 -1.801219 155 155 155
-10.271675 6.228101 -7.899793 154 154 154
-10.159567 6.074813 -7.899793 155 155 155
-10.159567 6.228101 -7.999081 152 152 152
-10.277297 6.228101 -7.699793 154 154 154
-10.348865 6.228101 -7.299793 154 154 154
-10.349268 6.228101 -7.099793 154 154 154
-10.333206 6.228101 -3.699793 154 154 154
-10.205590 6.228101 -3.499793 153 153 153
-10.159567 6.228101 -3.405172 153 153 153
-10.240907 6.228101 -2.699793 154 154 154
-10.249140 6.228101 -2.499793 153 153 153
-10.255212 6.228101 -2.299793 154 154 154
-10.255983 6.228101 -2.099793 154 154 154
-10.257814 6.228101 -1.899793 156 156 156
-10.159567 6.228101 -1.801547 156 156 156
-10.258316 6.428101 -7.899793 153 153 153
-10.159567 6.385447 -7.899793 153 153 153
-10.159567 6.428101 -7.817918 153 153 153
-10.204395 6.428101 -3.499793 153 153 153
-10.159567 6.428101 -3.366780 153 153 153
-10.243494 6.428101 -2.699793 154 154 154
-10.248898 6.428101 -2.499793 154 154 154
-10.253810 6.428101 -2.299793 154 154 154
-10.256326 6.428101 -2.099793 154 154 154
-10.257764 6.428101 -1.899793 154 154 154
-10.159567 6.428101 -1.801596 154 154 154
-10.217571 6.628101 -8.099793 154 154 154
-10.159567 6.490568 -7.899793 153 153 153
-10.159567 6.628101 -8.047945 154 154 154
-10.235814 6.628101 -3.499793 153 153 153
-10.159567 6.628101 -3.327794 154 154 154
-10.249161 6.628101 -2.499793 154 154 154
-10.252549 6.628101 -2.299793 156 156 156
-10.256409 6.628101 -2.099793 155 155 155
-10.257289 6.628101 -1.899793 155 155 155
-10.159567 6.628101 -1.802071 155 155 155
-10.331613 6.828101 -8.099793 154 154 154
-10.159567 6.828101 -7.983263 153 153 153
-10.249283 6.828101 -3.499793 153 153 153
-10.159567 6.828101 -3.320154 154 154 154
-10.243887 6.828101 -2.699793 154 154 154
-10.247175 6.828101 -2.499793 153 153 153
-10.254495 6.828101 -2.299793 155 155 155
-10.255785 6.828101 -2.099793 154 154 154
-10.257823 6.828101 -1.899793 156 156 156
-10.159567 6.828101 -1.801537 156 156 156
-10.159567 6.991829 -8.099793 153 153 153
-10.159567 7.028101 -8.135302 153 153 153
-10.347243 7.028101 -3.699793 153 153 153
-10.235342 7.028101 -3.499793 153 153 153
-10.164378 7.028101 -3.299793 153 153 153
-10.159567 6.959768 -3.299793 153 153 153
-10.159567 7.028101 -3.291433 153 153 153
-10.248063 7.028101 -2.499793 154 154 154
-10.253568 7.028101 -2.299793 153 153 153
-10.254929 7.028101 -2.099793 154 154 154
-10.257515 7.028101 -1.899793 155 155 155
-10.159567 7.028101 -1.801845 155 155 155
-10.159567 7.077468 -8.099793 153 153 153
-10.159567 7.170755 -7.899793 152 152 152
-10.159567 7.228101 -7.781782 153 153 153
-10.314038 7.228101 -3.699793 154 154 154
-10.228795 7.228101 -3.499793 153 153 153
-10.159567 7.081427 -3.299793 153 153 153
-10.159567 7.228101 -3.337775 152 152 152
-10.242484 7.228101 -2.699793 154 154 154
-10.248873 7.228101 -2.499793 155 155 155
-10.252832 7.228101 -2.299793 154 154 154
-10.256128 7.228101 -2.099793 155 155 155
-10.257158 7.228101 -1.899793 155 155 155
-10.159567 7.228101 -1.802202 155 155 155
-10.268971 7.428101 -8.099793 153 153 153
-10.159567 7.363321 -7.899793 153 153 153
-10.159567 7.428101 -7.963888 153 153 153
-10.316708 7.428101 -3.699793 153 153 153
-10.194946 7.428101 -3.499793 153 153 153
-10.159567 7.428101 -3.416642 153 153 153
-10.242070 7.428101 -2.699793 154 154 154
-10.250210 7.428101 -2.499793 154 154 154
-10.253672 7.428101 -2.299793 154 154 154
-10.256968 7.428101 -2.099793 155 155 155
-10.258233 7.428101 -1.899793 156 156 156
-10.159567 7.428101 -1.801127 156 156 156
-10.229770 7.628101 -8.099793 152 152 152
-10.172641 7.628101 -7.899793 153 153 153
-10.159567 7.588090 -7.899793 153 153 153
-10.159567 7.628101 -7.894546 153 153 153
-10.272684 7.628101 -3.699793 154 154 154
-10.209915 7.628101 -3.499793 153 153 153
-10.159567 7.628101 -3.401247 153 153 153
-10.245968 7.628101 -2.699793 154 154 154
-10.250886 7.628101 -2.499793 154 154 154
-10.255066 7.628101 -2.299793 155 155 155
-10.257760 7.628101 -2.099793 155 155 155
-10.258133 7.628101 -1.899793 155 155 155
-10.159567 7.628101 -1.801227 155 155 155
-10.159567 7.641769 -7.899793 153 153 153
-10.159567 7.828101 -7.985924 152 152 152
-10.263186 7.828101 -3.699793 154 154 154
-10.175540 7.828101 -3.499793 153 153 153
-10.159567 7.828101 -3.465305 153 153 153
-10.240175 7.828101 -2.899793 153 153 153
-10.248176 7.828101 -2.699793 154 154 154
-10.252572 7.828101 -2.499793 154 154 154
-10.256519 7.828101 -2.299793 153 153 153
-10.259495 7.828101 -2.099793 157 157 157
-10.159567 7.726667 -1.899793 155 155 155
-10.159567 7.828101 -1.999866 157 157 157
-10.354138 8.028101 -8.299793 154 154 154
-10.159567 8.028101 -7.928372 154 154 154
-10.252097 8.028101 -3.699793 152 152 152
-10.163917 8.028101 -3.499793 154 154 154
-10.159567 8.028101 -3.490977 154 154 154
-10.239596 8.028101 -2.899793 154 154 154
-10.250036 8.028101 -2.699793 153 153 153
-10.255933 8.028101 -2.499793 154 154 154
-10.258060 8.028101 -2.299793 155 155 155
-10.159567 7.928028 -2.099793 157 157 157
-10.159567 8.028101 -2.201300 155 155 155
-10.185421 8.228101 -8.099793 154 154 154
-10.159567 8.228101 -8.086224 154 154 154
-10.351957 8.228101 -3.899793 153 153 153
-10.224322 8.228101 -3.699793 153 153 153
-10.159567 8.092659 -3.499793 154 154 154
-10.159567 8.228101 -3.524295 154 154 154
-10.243788 8.228101 -2.899793 154 154 154
-10.252652 8.228101 -2.699793 154 154 154
-10.256104 8.228101 -2.499793 155 155 155
-10.159567 8.126594 -2.299793 155 155 155
-10.159567 8.228101 -2.403256 155 155 155
-10.318528 8.428101 -8.299793 153 153 153
-10.329836 8.428101 -8.099793 154 154 154
-10.159567 8.428101 -8.000887 153 153 153
-10.322344 8.428101 -3.899793 153 153 153
-10.215530 8.428101 -3.699793 154 154 154
-10.159567 8.428101 -3.567391 153 153 153
-10.236151 8.428101 -3.099793 154 154 154
-10.249796 8.428101 -2.899793 155 155 155
-10.255341 8.428101 -2.699793 156 156 156
-10.159567 8.324638 -2.499793 155 155 155
-10.159567 8.428101 -2.604020 156 156 156
-10.338920 8.628101 -8.299793 154 154 154
-10.275977 8.628101 -7.899793 154 154 154
-10.159567 8.628101 -8.059196 153 153 153
-10.286113 8.628101 -3.899793 154 154 154
-10.164977 8.628101 -3.699793 154 154 154
-10.159567 8.628101 -3.683322 154 154 154
-10.243847 8.628101 -3.099793 153 153 153
-10.249581 8.628101 -2.899793 156 156 156
-10.257367 8.628101 -2.699793 153 153 153
-10.159567 8.628101 -2.601993 153 153 153
-10.214909 8.828101 -7.899793 154 154 154
-10.159567 8.775475 -7.899793 154 154 154
-10.159567 8.828101 -7.873343 154 154 154
-10.220968 8.828101 -3.899793 153 153 153
-10.159567 8.659179 -3.699793 154 154 154
-10.159567 8.828101 -3.769334 153 153 153
-10.236925 8.828101 -3.299793 154 154 154
-10.244388 8.828101 -3.099793 155 155 155
-10.255038 8.828101 -2.899793 155 155 155
-10.159567 8.725900 -2.699793 153 153 153
-10.159567 8.828101 -2.804323 155 155 155
-10.166572 9.028101 -8.299793 154 154 154
-10.159567 9.023779 -8.299793 154 154 154
-10.159567 9.028101 -8.317108 154 154 154
-10.159567 9.028101 -8.104914 154 154 154
-10.279597 9.028101 -7.899793 154 154 154
-10.159567 8.860502 -7.899793 154 154 154
-10.159567 9.028101 -8.099545 154 154 154
-10.294714 9.028101 -4.099793 154 154 154
-10.189409 9.028101 -3.899793 153 153 153
-10.159567 9.028101 -3.815971 153 153 153
-10.244691 9.028101 -3.299793 155 155 155
-10.253431 9.028101 -3.099793 156 156 156
-10.159567 8.923571 -2.899793 155 155 155
-10.159567 9.028101 -3.005929 156 156 156
-10.159567 9.035536 -8.299793 154 154 154
-10.159567 9.228101 -7.971177 153 153 153
-10.213671 9.228101 -7.699793 154 154 154
-10.159567 9.164459 -7.699793 154 154 154
-10.159567 9.228101 -7.816467 153 153 153
-10.159567 9.228101 -7.651449 154 154 154
-10.246811 9.228101 -4.099793 154 154 154
-10.159567 9.184422 -3.899793 153 153 153
-10.159567 9.228101 -3.919415 153 153 153
-10.237165 9.228101 -3.499793 155 155 155
-10.245856 9.228101 -3.299793 155 155 155
-10.257424 9.228101 -3.099793 155 155 155
-10.159567 9.228101 -3.001936 155 155 155
-10.268987 9.428101 -8.099793 154 154 154
-10.159567 9.428101 -8.010691 154 154 154
-10.159567 9.262103 -7.699793 154 154 154
-10.280575 9.428101 -4.299793 154 154 154
-10.203062 9.428101 -4.099793 154 154 154
-10.159567 9.428101 -4.038724 154 154 154
-10.229359 9.428101 -3.699793 154 154 154
-10.246800 9.428101 -3.499793 154 154 154
-10.255266 9.428101 -3.299793 154 154 154
-10.159567 9.325958 -3.099793 155 155 155
-10.159567 9.428101 -3.204094 154 154 154
-10.206731 9.628101 -8.299793 152 152 152
-10.159567 9.562200 -8.299793 152 152 152
-10.159567 9.628101 -8.313830 152 152 152
-10.159567 9.628101 -8.117950 153 153 153
-10.337490 9.628101 -7.899793 153 153 153
-10.159567 9.628101 -8.094548 153 153 153
-10.252443 9.628101 -4.299793 154 154 154
-10.159567 9.561672 -4.099793 153 153 153
-10.159567 9.628101 -4.137260 153 153 153
-10.239915 9.628101 -3.699793 154 154 154
-10.253023 9.628101 -3.499793 155 155 155
-10.159567 9.523800 -3.299793 154 154 154
-10.159567 9.628101 -3.406338 155 155 155
-10.159567 9.644538 -8.299793 152 152 152
-10.209221 9.828101 -8.099793 154 154 154
-10.159567 9.637946 -8.099793 153 153 153
-10.159567 9.828101 -8.129244 154 154 154
-10.170251 9.828101 -7.899793 153 153 153
-10.291133 9.828101 -4.499793 155 155 155
-10.169556 9.828101 -4.299793 152 152 152
-10.159567 9.828101 -4.276610 152 152 152
-10.234411 9.828101 -3.899793 155 155 155
-10.251017 9.828101 -3.699793 154 154 154
-10.159567 9.721556 -3.499793 155 155 155
-10.159567 9.828101 -3.608343 154 154 154
-10.159567 10.028101 -8.134756 154 154 154
-10.184178 10.028101 -7.899793 154 154 154
-10.159567 9.858097 -7.899793 153 153 153
-10.159567 10.028101 -7.980494 154 154 154
-10.159567 10.028101 -7.874907 154 154 154
-10.227680 10.028101 -4.499793 154 154 154
-10.159567 9.874381 -4.299793 152 152 152
-10.159567 10.028101 -4.363791 154 154 154
-10.218578 10.028101 -4.099793 154 154 154
-10.249954 10.028101 -3.899793 154 154 154
-10.257561 10.028101 -3.699793 155 155 155
-10.159567 10.028101 -3.601799 155 155 155
-10.271469 10.228101 -8.099793 154 154 154
-10.159567 10.228101 -8.164472 153 153 153
-10.159567 10.042414 -7.899793 154 154 154
-10.285920 10.228101 -4.699793 153 153 153
-10.175643 10.228101 -4.499793 154 154 154
-10.159567 10.228101 -4.472915 154 154 154
-10.245495 10.228101 -4.099793 153 153 153
-10.255504 10.228101 -3.899793 154 154 154
-10.159567 10.126095 -3.699793 155 155 155
-10.159567 10.228101 -3.803857 154 154 154
-10.159567 10.362505 -8.099793 153 153 153
-10.267489 10.428101 -7.899793 154 154 154
-10.159567 10.428101 -8.014194 153 153 153
-10.338278 10.428101 -6.699793 154 154 154
-10.208491 10.428101 -4.699793 153 153 153
-10.159567 10.268300 -4.499793 154 154 154
-10.159567 10.428101 -4.616329 153 153 153
-10.240346 10.428101 -4.299793 154 154 154
-10.253062 10.428101 -4.099793 156 156 156
-10.159567 10.324037 -3.899793 154 154 154
-10.159567 10.428101 -4.006298 156 156 156
-10.335187 10.628101 -8.099793 154 154 154
-10.159567 10.628101 -7.911921 153 153 153
-10.241484 10.628101 -4.899793 154 154 154
-10.159567 10.579924 -4.699793 155 155 155
-10.159567 10.628101 -4.729383 155 155 155
-10.218629 10.628101 -4.499793 155 155 155
-10.254017 10.628101 -4.299793 154 154 154
-10.159567 10.521596 -4.099793 156 156 156
-10.159567 10.628101 -4.205343 154 154 154
-10.271788 10.828101 -8.099793 153 153 153
-10.159567 10.828101 -8.002848 154 154 154
-10.296307 10.828101 -5.099793 155 155 155
-10.159567 10.818059 -4.899793 154 154 154
-10.159567 10.828101 -4.906990 154 154 154
-10.215964 10.828101 -4.699793 153 153 153
-10.248646 10.828101 -4.499793 154 154 154
-10.159567 10.722551 -4.299793 154 154 154
-10.159567 10.828101 -4.410714 154 154 154
-10.211321 11.028101 -8.099793 154 154 154
-10.159567 10.922485 -8.099793 154 154 154
-10.159567 11.028101 -8.222822 154 154 154
-10.323336 11.028101 -5.299793 154 154 154
-10.210734 11.028101 -5.099793 154 154 154
-10.190826 11.028101 -4.899793 154 154 154
-10.159567 11.028101 -5.004885 154 154 154
-10.242584 11.028101 -4.699793 156 156 156
-10.159567 10.917179 -4.499793 154 154 154
-10.159567 11.028101 -4.616776 156 156 156
-10.188262 11.228101 -8.099793 154 154 154
-10.159567 11.228101 -8.124850 154 154 154
-10.159567 11.204290 -7.899793 153 153 153
-10.159567 11.228101 -7.967098 153 153 153
-10.159567 11.228101 -7.864065 153 153 153
-10.185624 11.228101 -6.899793 154 154 154
-10.159567 11.172353 -6.899793 154 154 154
-10.159567 11.228101 -6.937584 154 154 154
-10.159567 11.228101 -6.871439 154 154 154
-10.359227 11.228101 -5.499793 154 154 154
-10.227638 11.228101 -5.299793 154 154 154
-10.159567 11.093756 -5.099793 154 154 154
-10.159567 11.228101 -5.201576 154 154 154
-10.241010 11.228101 -4.899793 156 156 156
-10.159567 11.111117 -4.699793 156 156 156
-10.159567 11.228101 -4.818350 156 156 156
-10.281668 11.428101 -8.299793 154 154 154
-10.159567 11.275522 -8.099793 154 154 154
-10.165570 11.428101 -7.899793 154 154 154
-10.159567 11.428101 -7.892372 154 154 154
-10.159567 11.340224 -6.899793 153 153 153
-10.262438 11.428101 -5.499793 154 154 154
-10.185008 11.428101 -5.299793 154 154 154
-10.226577 11.428101 -5.099793 154 154 154
-10.159567 11.428101 -5.266760 154 154 154
-10.159567 11.309544 -4.899793 156 156 156
-10.159567 11.428101 -5.032783 154 154 154
-10.159567 11.561934 -8.099793 154 154 154
-10.159567 11.628101 -8.177367 154 154 154
-10.159567 11.432235 -7.899793 154 154 154
-10.266817 11.628101 -5.699793 155 155 155
-10.174093 11.628101 -5.499793 154 154 154
-10.227782 11.628101 -5.299793 154 154 154
-10.159567 11.460399 -5.299793 154 154 154
-10.159567 11.628101 -5.479478 154 154 154
-10.255728 11.628101 -5.099793 157 157 157
-10.159567 11.628101 -5.003632 157 157 157
-10.348908 11.828101 -8.099793 154 154 154
-10.159567 11.732694 -8.099793 152 152 152
-10.290992 11.828101 -7.899793 155 155 155
-10.159567 11.828101 -8.006083 152 152 152
-10.172082 11.828101 -7.299793 154 154 154
-10.159567 11.812554 -7.299793 154 154 154
-10.159567 11.828101 -7.323708 154 154 154
-10.159567 11.828101 -7.279105 154 154 154
-10.310419 11.828101 -5.899793 154 154 154
-10.175822 11.828101 -5.699793 154 154 154
-10.214741 11.828101 -5.499793 155 155 155
-10.159567 11.654733 -5.499793 154 154 154
-10.159567 11.828101 -5.677045 154 154 154
-10.253791 11.828101 -5.299793 156 156 156
-10.159567 11.724262 -5.099793 157 157 157
-10.159567 11.828101 -5.205570 156 156 156
-10.164915 12.028101 -8.099793 154 154 154
-10.159567 12.011742 -8.099793 154 154 154
-10.159567 12.028101 -8.102930 154 154 154
-10.159567 11.997363 -7.899793 153 153 153
-10.159567 12.028101 -8.039410 154 154 154
-10.159567 11.897548 -7.699793 154 154 154
-10.221790 12.028101 -7.499793 153 153 153
-10.159567 11.970366 -7.499793 153 153 153
-10.159567 11.845975 -7.299793 154 154 154
-10.159567 12.028101 -7.454440 153 153 153
-10.205614 12.028101 -5.899793 153 153 153
-10.187912 12.028101 -5.699793 155 155 155
-10.159567 11.873790 -5.699793 154 154 154
-10.159567 12.028101 -5.786004 155 155 155
-10.246910 12.028101 -5.499793 155 155 155
-10.159567 11.922324 -5.299793 156 156 156
-10.159567 12.028101 -5.412450 155 155 155
-10.159567 12.174196 -8.299793 153 153 153
-10.159567 12.228101 -8.346127 153 153 153
-10.194988 12.228101 -7.899793 154 154 154
-10.159567 12.058271 -7.899793 153 153 153
-10.159567 12.059262 -7.699793 154 154 154
-10.159567 12.055117 -7.499793 153 153 153
-10.234663 12.228101 -6.099793 154 154 154
-10.208958 12.228101 -5.899793 153 153 153
-10.159567 12.107953 -5.899793 153 153 153
-10.159567 12.228101 -6.011715 154 154 154
-10.246300 12.228101 -5.699793 155 155 155
-10.159567 12.115444 -5.499793 155 155 155
-10.159567 12.228101 -5.613060 155 155 155
-10.159567 12.318223 -8.299793 153 153 153
-10.159567 12.309573 -8.099793 153 153 153
-10.159567 12.428101 -7.992882 153 153 153
-10.264951 12.428101 -6.299793 153 153 153
-10.163470 12.428101 -6.099793 155 155 155
-10.159567 12.413781 -6.099793 155 155 155
-10.159567 12.428101 -6.110850 155 155 155
-10.241227 12.428101 -5.899793 154 154 154
-10.159567 12.314833 -5.699793 155 155 155
-10.159567 12.428101 -5.818133 154 154 154
-10.222941 12.628101 -8.099793 154 154 154
-10.334470 12.628101 -7.899793 154 154 154
-10.159567 12.502624 -7.899793 153 153 153
-10.159567 12.616847 -7.699793 153 153 153
-10.347165 12.628101 -7.499793 155 155 155
-10.159567 12.628101 -7.690980 153 153 153
-10.230303 12.628101 -6.499793 154 154 154
-10.159567 12.571173 -6.299793 155 155 155
-10.159567 12.628101 -6.373544 155 155 155
-10.240259 12.628101 -6.099793 155 155 155
-10.159567 12.509761 -5.899793 154 154 154
-10.159567 12.628101 -6.019101 155 155 155
-10.159567 12.799084 -8.299793 154 154 154
-10.159567 12.828101 -8.337269 154 154 154
-10.175011 12.828101 -8.099793 154 154 154
-10.159567 12.828101 -8.156899 154 154 154
-10.159567 12.742711 -7.899793 154 154 154
-10.159567 12.828101 -8.071574 154 154 154
-10.159567 12.632363 -7.699793 153 153 153
-10.314794 12.828101 -7.499793 154 154 154
-10.233664 12.828101 -6.299793 154 154 154
-10.159567 12.828101 -6.445738 155 155 155
-10.159567 12.708793 -6.099793 155 155 155
-10.159567 12.828101 -6.225697 154 154 154
-10.214437 13.028101 -8.299793 154 154 154
-10.159567 12.916654 -8.299793 154 154 154
-10.195523 13.028101 -8.099793 155 155 155
-10.191621 13.028101 -7.899793 154 154 154
-10.159567 12.988426 -7.899793 154 154 154
-10.159567 13.028101 -7.869424 154 154 154
-10.221585 13.028101 -6.499793 155 155 155
-10.159567 12.893418 -6.499793 155 155 155
-10.159567 13.028101 -6.657664 154 154 154
-10.159567 12.902197 -6.299793 154 154 154
-10.159567 13.028101 -6.437775 155 155 155
-10.260210 13.228101 -8.299793 155 155 155
-10.261086 13.228101 -8.099793 155 155 155
-10.159567 13.065515 -7.899793 154 154 154
-10.159567 13.228101 -8.004241 155 155 155
-10.342670 13.228101 -7.099793 155 155 155
-10.210618 13.228101 -6.899793 154 154 154
-10.231594 13.228101 -6.699793 156 156 156
-10.159567 13.063235 -6.699793 154 154 154
-10.159567 13.228101 -6.841915 154 154 154
-10.159567 13.090118 -6.499793 155 155 155
-10.159567 13.228101 -6.627766 156 156 156
-10.296244 13.428101 -8.499793 154 154 154
-10.308300 13.428101 -8.299793 155 155 155
-10.159567 13.416503 -8.099793 155 155 155
-10.159567 13.428101 -8.105823 155 155 155
-10.351336 13.428101 -7.899793 155 155 155
-10.195957 13.428101 -7.099793 154 154 154
-10.240198 13.428101 -6.899793 155 155 155
-10.159567 13.278772 -6.899793 154 154 154
-10.159567 13.428101 -7.058924 154 154 154
-10.159567 13.300128 -6.699793 156 156 156
-10.159567 13.428101 -6.819162 155 155 155
-10.187423 13.628101 -8.699793 154 154 154
-10.159567 13.600639 -8.699793 154 154 154
-10.159567 13.628101 -8.752523 154 154 154
-10.182837 13.628101 -8.499793 154 154 154
-10.159567 13.600475 -8.499793 154 154 154
-10.159567 13.595620 -8.299793 155 155 155
-10.165114 13.628101 -8.099793 154 154 154
-10.159567 13.598632 -8.099793 154 154 154
-10.159567 13.628101 -8.105185 154 154 154
-10.159567 13.628101 -8.098804 154 154 154
-10.183649 13.628101 -7.499793 154 154 154
-10.159567 13.601312 -7.499793 154 154 154
-10.159567 13.628101 -7.520429 154 154 154
-10.230820 13.628101 -7.299793 155 155 155
-10.159567 13.628101 -7.485622 154 154 154
-10.244733 13.628101 -7.099793 155 155 155
-10.159567 13.466016 -7.099793 154 154 154
-10.159567 13.628101 -7.225493 155 155 155
-10.159567 13.508732 -6.899793 155 155 155
-10.159567 13.628101 -7.014628 155 155 155
-10.159567 13.654110 -8.699793 154 154 154
-10.270856 13.828101 -8.499793 153 153 153
-10.159567 13.699084 -8.499793 154 154 154
-10.159567 13.726366 -8.299793 155 155 155
-10.357231 13.828101 -8.099793 155 155 155
-10.159567 13.629067 -8.099793 154 154 154
-10.159567 13.828101 -8.269074 153 153 153
-10.334042 13.828101 -7.899793 154 154 154
-10.211122 13.828101 -7.699793 153 153 153
-10.159567 13.788759 -7.699793 153 153 153
-10.159567 13.828101 -7.741283 153 153 153
-10.188151 13.828101 -7.499793 154 154 154
-10.159567 13.673442 -7.499793 154 154 154
-10.159567 13.828101 -7.622946 153 153 153
-10.223285 13.828101 -7.299793 154 154 154
-10.159567 13.724881 -7.299793 155 155 155
-10.159567 13.828101 -7.460578 154 154 154
-10.159567 13.713266 -7.099793 155 155 155
-10.159567 13.828101 -7.236075 154 154 154
-10.345932 14.028101 -8.499793 154 154 154
-10.317828 14.028101 -8.299793 153 153 153
-10.159567 13.875120 -8.299793 153 153 153
-10.159567 14.028101 -8.403863 153 153 153
-10.291650 14.028101 -8.099793 154 154 154
-10.305284 14.028101 -7.899793 155 155 155
-10.193882 14.028101 -7.699793 155 155 155
-10.159567 13.889439 -7.699793 153 153 153
-10.195991 14.028101 -7.499793 155 155 155
-10.159567 13.895835 -7.499793 154 154 154
-10.159567 14.028101 -7.615912 155 155 155
-10.159567 13.891818 -7.299793 154 154 154
-10.159567 14.028101 -7.463369 155 155 155
-10.303076 14.228101 -8.299793 155 155 155
-10.159567 14.132622 -8.299793 155 155 155
-10.159567 14.228101 -8.206854 155 155 155
-10.198202 14.228101 -7.899793 155 155 155
-10.198408 14.228101 -7.699793 156 156 156
-10.159567 14.108153 -7.699793 155 155 155
-10.159567 14.228101 -7.814367 155 155 155
-10.159567 14.064524 -7.499793 155 155 155
-10.159567 14.228101 -7.660952 156 156 156
-10.243103 14.428101 -8.299793 155 155 155
-10.216488 14.428101 -8.099793 155 155 155
-10.159567 14.428101 -8.234088 155 155 155
-10.189876 14.428101 -7.899793 156 156 156
-10.159567 14.328404 -7.899793 156 156 156
-10.159567 14.428101 -7.986797 156 156 156
-10.159567 14.266942 -7.699793 156 156 156
-10.159567 14.428101 -7.869485 156 156 156
-10.317134 14.628101 -8.699793 155 155 155
-10.159567 14.525281 -8.699793 154 154 154
-10.159567 14.628101 -8.892576 154 154 154
-10.162890 14.628101 -8.499793 154 154 154
-10.159567 14.622917 -8.499793 154 154 154
-10.159567 14.628101 -8.494388 154 154 154
-10.177103 14.628101 -8.099793 154 154 154
-10.159567 14.569514 -8.099793 154 154 154
-10.159567 14.458409 -7.899793 156 156 156
-10.159567 14.628101 -8.082258 154 154 154
-10.159567 14.828101 -8.734707 155 155 155
-10.183604 14.828101 -8.499793 155 155 155
-10.159567 14.825376 -8.299793 155 155 155
-10.159567 14.645636 -8.099793 154 154 154
-10.329358 15.028101 -8.899793 154 154 154
-10.159567 14.927086 -8.699793 155 155 155
-10.167665 15.028101 -8.499793 153 153 153
-10.159567 14.944959 -8.499793 153 153 153
-10.159567 15.028101 -8.491695 153 153 153
-10.161056 15.228101 -8.899793 155 155 155
-10.159567 15.218842 -8.899793 155 155 155
-10.159567 15.228101 -8.901336 155 155 155
-10.173912 15.228101 -8.699793 156 156 156
-10.159567 15.228101 -8.892810 155 155 155
-10.159567 15.036199 -8.499793 153 153 153
-10.159567 15.228101 -8.685448 156 156 156
-10.178980 15.428101 -8.899793 156 156 156
-10.159567 15.233169 -8.899793 155 155 155
-10.159567 15.242445 -8.699793 156 156 156
-10.159567 15.428101 -8.880380 156 156 156
-10.194994 15.628101 -9.499793 155 155 155
-10.198457 15.628101 -9.099793 156 156 156
-10.159567 15.447514 -8.899793 156 156 156
-10.159567 15.628101 -9.060903 156 156 156
-10.226765 15.828101 -9.299793 157 157 157
-10.159567 15.666990 -9.099793 156 156 156
-10.159567 15.828101 -9.232595 157 157 157
-10.159567 15.895299 -9.299793 157 157 157
-10.159567 16.028101 -9.421934 154 154 154
-10.237426 16.028101 -9.499793 154 154 154
-10.159567 16.105960 -9.499793 154 154 154
-9.959567 -2.571899 -9.480883 155 155 155
-9.959567 -2.590809 -9.499793 155 155 155
-9.978477 -2.571899 -9.499793 155 155 155
-10.022236 -2.371899 -9.299793 157 157 157
-9.959567 -2.434568 -9.299793 157 157 157
-9.959567 -2.371899 -9.237124 157 157 157
-10.034273 -2.171899 -9.099793 156 156 156
-9.959567 -2.246606 -9.099793 156 156 156
-9.959567 -2.171899 -9.025087 156 156 156
-10.013774 -1.971899 -8.899793 153 153 153
-9.959567 -2.026106 -8.899793 153 153 153
-9.959567 -1.971899 -8.845586 153 153 153
-9.959567 -1.771899 -9.369163 156 156 156
-9.959567 -1.881130 -9.499793 154 154 154
-10.069043 -1.771899 -9.499793 157 157 157
-9.985871 -1.771899 -8.699793 155 155 155
-9.959567 -1.798203 -8.699793 155 155 155
-10.057585 -1.771899 -8.499793 155 155 155
-9.959567 -1.869917 -8.499793 155 155 155
-9.959567 -1.771899 -8.401775 155 155 155
-9.959567 -1.610476 -9.499793 154 154 154
-10.048217 -1.571899 -8.899793 155 155 155
-9.959567 -1.658450 -8.899793 155 155 155
-9.959567 -1.571899 -8.951790 155 155 155
-9.959567 -1.581377 -8.699793 155 155 155
-9.959567 -1.590057 -8.499793 156 156 156
-10.153779 -1.371899 -8.899793 155 155 155
-9.959567 -1.492023 -8.899793 155 155 155
-9.959567 -1.565257 -8.699793 155 155 155
-9.959567 -1.485766 -8.499793 156 156 156
-9.959567 -1.371899 -8.425651 155 155 155
-10.157429 -1.171899 -8.699793 153 153 153
-10.043797 -1.171899 -8.499793 154 154 154
-10.060477 -1.171899 -8.299793 154 154 154
-9.959567 -1.171899 -8.386656 154 154 154
-9.964480 -1.171899 -8.099793 154 154 154
-9.959567 -1.176812 -8.099793 154 154 154
-9.959567 -1.171899 -8.207573 154 154 154
-10.044303 -1.171899 -7.899793 155 155 155
-9.959567 -1.256636 -7.899793 155 155 155
-9.959567 -1.171899 -7.815057 155 155 155
-9.959567 -1.151591 -8.299793 154 154 154
-9.959567 -0.987670 -7.899793 154 154 154
-9.959567 -0.971899 -7.943101 154 154 154
-10.058509 -0.971899 -7.699793 154 154 154
-9.959567 -1.070841 -7.699793 154 154 154
-9.959567 -0.971899 -7.887714 154 154 154
-9.959567 -0.971899 -7.600851 154 154 154
-10.061149 -0.771899 -8.499793 155 155 155
-10.106392 -0.771899 -8.299793 154 154 154
-9.959567 -0.871976 -8.099793 154 154 154
-9.959567 -0.771899 -8.207385 157 157 157
