ply
format ascii 1.0
element vertex 1200
property float x
property float y
property float z
property uchar red
property uchar green
property uchar blue
end_header
-2.481064 -0.716594 3.000000 159 122 106
-2.481064 -0.720439 3.040000 119 84 82
-2.481064 -0.718789 3.060000 121 90 87
-2.488142 -0.686310 1.580000 161 52 62
-2.492463 -0.686310 1.600000 161 56 68
-2.494242 -0.686310 1.620000 158 55 70
-2.497217 -0.686310 1.640000 159 51 64
-2.498996 -0.686310 1.660000 156 52 67
-2.481064 -0.686310 2.211806 113 118 119
-2.481064 -0.688250 2.260000 122 119 120
-2.481064 -0.686310 2.261140 122 119 120
-2.481064 -0.696630 2.780000 201 174 145
-2.481064 -0.697195 2.840000 234 231 232
-2.481064 -0.699723 2.860000 213 211 214
-2.490513 -0.686310 2.880000 255 253 252
-2.481064 -0.695759 2.880000 255 253 252
-2.481064 -0.686310 2.870551 255 253 252
-2.481064 -0.686310 2.889449 255 253 252
-2.481064 -0.701255 2.960000 238 246 248
-2.481970 -0.666310 1.540000 209 158 149
-2.488294 -0.666310 1.560000 163 63 75
-2.492136 -0.666310 1.580000 159 56 71
-2.493612 -0.666310 1.600000 161 57 70
-2.494619 -0.666310 1.620000 155 54 69
-2.495440 -0.666310 1.640000 141 59 68
-2.499391 -0.666310 1.660000 126 69 78
-2.496738 -0.666310 2.220000 116 120 121
-2.481064 -0.666310 2.212437 120 122 124
-2.495026 -0.666310 2.280000 208 190 165
-2.481064 -0.666310 2.264703 193 176 151
-2.481064 -0.676862 2.880000 255 253 252
-2.481064 -0.646885 1.500000 213 177 159
-2.481064 -0.646310 1.499426 213 177 159
-2.482097 -0.646310 1.520000 177 123 119
-2.481064 -0.646310 1.515281 177 123 119
-2.488408 -0.646310 1.540000 155 74 85
-2.489459 -0.646310 1.560000 155 55 72
-2.490899 -0.646310 1.580000 153 57 70
-2.493288 -0.646310 1.600000 140 62 74
-2.494727 -0.646310 1.620000 125 73 80
-2.497477 -0.646310 1.640000 107 87 92
-2.499539 -0.646310 1.660000 101 95 99
-2.481064 -0.662913 2.220000 120 122 124
-2.486397 -0.646310 2.240000 206 190 162
-2.481064 -0.646310 2.234668 206 190 162
-2.490315 -0.646310 2.280000 188 166 143
-2.481064 -0.646310 2.267991 193 171 141
-2.486179 -0.646310 2.420000 117 121 119
-2.481064 -0.649992 2.420000 117 121 119
-2.481064 -0.646310 2.413297 117 121 119
-2.481064 -0.646310 2.423371 117 121 119
-2.481489 -0.626310 1.460000 187 134 125
-2.482153 -0.626310 1.480000 184 130 124
-2.485960 -0.626310 1.500000 150 71 81
-2.481064 -0.638679 1.500000 213 177 159
-2.485907 -0.626310 1.520000 135 49 65
-2.485404 -0.626310 1.540000 148 54 67
-2.487851 -0.626310 1.560000 131 66 77
-2.490118 -0.626310 1.580000 114 75 82
-2.492412 -0.626310 1.600000 104 85 92
-2.494313 -0.626310 1.620000 97 93 99
-2.498058 -0.626310 1.640000 100 98 103
-2.500304 -0.626310 1.660000 100 98 104
-2.499728 -0.626310 1.860000 114 102 104
-2.481265 -0.626310 2.240000 186 163 136
-2.481064 -0.626310 2.239800 186 163 136
-2.481064 -0.627458 2.280000 108 98 98
-2.481064 -0.626310 2.280655 108 98 98
-2.481064 -0.637781 2.400000 108 108 107
-2.481064 -0.626310 2.380247 121 122 117
-2.491446 -0.626310 2.440000 84 78 82
-2.481064 -0.626310 2.429366 108 107 121
-2.481064 -0.606886 1.420000 183 150 131
-2.481064 -0.606310 1.419425 183 150 131
-2.482637 -0.606310 1.440000 163 107 106
-2.481064 -0.606310 1.431586 163 107 106
-2.483330 -0.606310 1.460000 148 64 76
-2.481884 -0.606310 1.480000 149 48 63
-2.484087 -0.606310 1.500000 137 49 65
-2.484434 -0.606310 1.520000 125 60 73
-2.483962 -0.606310 1.540000 111 73 82
-2.486489 -0.606310 1.560000 99 90 97
-2.490401 -0.606310 1.580000 97 95 101
-2.493078 -0.606310 1.600000 94 92 100
-2.495523 -0.606310 1.620000 93 93 102
-2.497849 -0.606310 1.640000 102 100 106
-2.499211 -0.606310 1.660000 105 102 108
-2.496154 -0.606310 1.720000 99 99 106
-2.495322 -0.606310 1.740000 103 101 107
-2.497873 -0.606310 1.760000 101 100 105
-2.499316 -0.606310 1.780000 107 104 106
-2.497316 -0.606310 1.820000 115 104 100
-2.495144 -0.606310 1.840000 138 127 118
-2.481064 -0.626110 2.240000 186 163 136
-2.486018 -0.606310 2.260000 76 82 90
-2.481064 -0.606310 2.255046 76 82 90
-2.492132 -0.606310 2.300000 78 80 91
-2.481064 -0.606310 2.286753 77 79 92
-2.482725 -0.606310 2.360000 145 133 129
-2.481064 -0.608295 2.360000 145 133 129
-2.481064 -0.606310 2.358686 145 133 129
-2.481064 -0.626092 2.380000 121 122 117
-2.481064 -0.606310 2.429541 95 87 87
-2.481724 -0.586310 1.380000 176 140 116
-2.481064 -0.586970 1.380000 176 140 116
-2.481064 -0.586310 1.379340 176 140 116
-2.481433 -0.586310 1.400000 160 102 101
-2.481064 -0.586310 1.398170 160 102 101
-2.481064 -0.586310 1.401274 160 102 101
-2.481064 -0.598456 1.440000 163 107 106
-2.481064 -0.592943 1.460000 140 50 65
-2.481064 -0.596035 1.480000 119 57 69
-2.482330 -0.586310 1.500000 101 73 84
-2.481064 -0.586310 1.486825 119 57 69
-2.484041 -0.586310 1.520000 97 91 98
-2.485871 -0.586310 1.540000 96 95 98
-2.488632 -0.586310 1.560000 92 92 100
-2.490072 -0.586310 1.580000 99 95 105
-2.493418 -0.586310 1.600000 100 98 103
-2.495150 -0.586310 1.620000 101 98 104
-2.496066 -0.586310 1.640000 108 106 107
-2.496354 -0.586310 1.660000 101 99 103
-2.497354 -0.586310 1.680000 100 99 106
-2.494005 -0.586310 1.700000 103 104 108
-2.487396 -0.586310 1.720000 105 102 108
-2.488626 -0.586310 1.740000 106 99 101
-2.492063 -0.586310 1.760000 98 89 95
-2.494156 -0.586310 1.780000 116 101 94
-2.495159 -0.586310 1.800000 121 107 99
-2.500610 -0.586310 1.820000 134 122 111
-2.481064 -0.601357 2.260000 76 82 90
-2.481064 -0.586310 2.273164 74 79 92
-2.489301 -0.586310 2.300000 85 84 93
-2.481064 -0.586310 2.290089 85 84 93
-2.481064 -0.596200 2.360000 144 135 132
-2.481064 -0.586310 2.362059 144 135 132
-2.491902 -0.586310 2.420000 93 96 107
-2.481064 -0.596769 2.420000 95 87 87
-2.481064 -0.586310 2.409388 97 97 100
-2.481064 -0.566310 1.379585 145 58 71
-2.481064 -0.585068 1.400000 160 102 101
-2.482745 -0.566310 1.500000 82 78 90
-2.481064 -0.566310 1.489549 81 75 84
-2.485320 -0.566310 1.520000 93 90 99
-2.485453 -0.566310 1.540000 98 97 102
-2.488381 -0.566310 1.560000 97 96 100
-2.491161 -0.566310 1.580000 100 97 104
-2.492507 -0.566310 1.600000 109 106 109
-2.490330 -0.566310 1.620000 98 98 103
-2.490042 -0.566310 1.640000 103 101 107
-2.492831 -0.566310 1.660000 105 105 107
-2.494597 -0.566310 1.680000 104 102 106
-2.491544 -0.566310 1.700000 109 107 108
-2.483466 -0.566310 1.720000 100 93 97
-2.482197 -0.566310 1.740000 123 108 97
-2.486642 -0.566310 1.760000 134 120 101
-2.494968 -0.566310 1.780000 139 123 103
-2.487078 -0.566310 2.280000 74 81 88
-2.481064 -0.566310 2.273986 74 81 88
-2.481064 -0.576860 2.300000 85 84 93
-2.493074 -0.566310 2.320000 76 77 86
-2.481064 -0.566310 2.308074 72 76 84
-2.481064 -0.566310 2.360610 122 114 121
-2.491612 -0.566310 2.420000 136 136 134
-2.481064 -0.566310 2.409164 122 120 119
-2.487045 -0.546310 1.340000 151 51 61
-2.481064 -0.552291 1.340000 151 51 61
-2.481064 -0.546310 1.334019 151 51 61
-2.481064 -0.547759 1.360000 153 51 64
-2.481064 -0.548081 1.500000 72 70 82
-2.484143 -0.546310 1.520000 91 90 99
-2.481064 -0.546310 1.501019 72 70 82
-2.485677 -0.546310 1.540000 103 101 105
-2.489210 -0.546310 1.560000 108 104 106
-2.490434 -0.546310 1.580000 101 100 104
-2.487770 -0.546310 1.600000 106 104 110
-2.486224 -0.546310 1.620000 104 103 107
-2.489832 -0.546310 1.640000 110 107 110
-2.492553 -0.546310 1.660000 115 107 108
-2.496025 -0.546310 1.680000 100 94 98
-2.493767 -0.546310 1.700000 106 101 102
-2.489096 -0.546310 1.720000 116 104 104
-2.487102 -0.546310 1.740000 137 124 106
-2.494405 -0.546310 1.760000 144 131 111
-2.481064 -0.560296 2.280000 74 81 88
-2.487446 -0.546310 2.300000 73 77 88
-2.481064 -0.546310 2.293619 73 77 88
-2.489293 -0.546310 2.320000 81 81 92
-2.481064 -0.546310 2.310852 81 81 92
-2.481064 -0.546310 2.367262 77 73 85
-2.481064 -0.555807 2.420000 76 77 85
-2.481064 -0.546310 2.429497 76 77 85
-2.491203 -0.546310 2.460000 72 69 76
-2.491059 -0.546310 2.520000 117 102 73
-2.481064 -0.556306 2.520000 117 102 73
-2.481064 -0.546310 2.510005 117 102 73
-2.481064 -0.546310 2.529995 117 102 73
-2.481064 -0.529253 1.280000 150 47 55
-2.481064 -0.526310 1.277057 150 47 55
-2.481064 -0.528441 1.300000 153 53 68
-2.481064 -0.529082 1.320000 152 47 59
-2.484282 -0.526310 1.520000 75 69 82
-2.481064 -0.526310 1.505022 80 80 88
-2.486588 -0.526310 1.540000 94 91 94
-2.489078 -0.526310 1.560000 107 105 110
-2.488445 -0.526310 1.580000 104 105 109
-2.486915 -0.526310 1.600000 114 110 115
-2.487033 -0.526310 1.620000 114 110 112
-2.489701 -0.526310 1.640000 113 101 103
-2.492559 -0.526310 1.660000 124 117 114
-2.496751 -0.526310 1.680000 117 110 107
-2.497325 -0.526310 1.700000 147 131 131
-2.495968 -0.526310 1.720000 136 129 124
-2.500361 -0.526310 1.740000 123 117 113
-2.481064 -0.539929 2.300000 73 77 88
-2.481064 -0.539286 2.380000 92 81 90
-2.490439 -0.526310 2.400000 86 73 76
-2.481064 -0.526310 2.390626 86 73 76
-2.486110 -0.526310 2.420000 70 70 80
-2.497790 -0.526310 2.440000 69 71 78
-2.481064 -0.526310 2.425046 70 70 80
-2.487335 -0.526310 2.460000 76 69 87
-2.481064 -0.532581 2.460000 76 69 87
-2.481064 -0.526310 2.453729 76 69 87
-2.481064 -0.526310 2.466271 76 69 87
-2.481064 -0.536315 2.520000 117 102 73
-2.481064 -0.509644 1.260000 148 53 67
-2.481064 -0.506310 1.256666 148 53 67
-2.482571 -0.506310 1.520000 71 71 80
-2.481064 -0.506310 1.507576 81 82 88
-2.486565 -0.506310 1.540000 94 92 97
-2.488710 -0.506310 1.560000 112 110 112
-2.490217 -0.506310 1.580000 116 113 112
-2.488848 -0.506310 1.600000 107 105 111
-2.490382 -0.506310 1.620000 109 106 107
-2.490564 -0.506310 1.640000 138 130 124
-2.494281 -0.506310 1.660000 151 140 136
-2.498750 -0.506310 1.680000 161 150 147
-2.485531 -0.506310 2.100000 82 71 113
-2.481064 -0.507316 2.100000 82 71 113
-2.481064 -0.506310 2.097911 82 71 113
-2.481064 -0.506310 2.101005 82 71 113
-2.481064 -0.516936 2.400000 86 73 76
-2.481064 -0.521265 2.420000 70 70 80
-2.481064 -0.520040 2.460000 76 69 87
-2.481064 -0.490355 1.240000 144 51 60
-2.481064 -0.486310 1.235956 144 51 60
-2.481679 -0.486310 1.520000 98 99 102
-2.481064 -0.486310 1.513750 98 99 102
-2.486378 -0.486310 1.540000 79 74 80
-2.488093 -0.486310 1.560000 105 102 104
-2.492228 -0.486310 1.580000 112 111 112
-2.491990 -0.486310 1.600000 111 111 112
-2.492866 -0.486310 1.620000 112 110 116
-2.493923 -0.486310 1.640000 119 118 119
-2.499909 -0.486310 1.660000 143 138 134
-2.481064 -0.504982 2.100000 82 71 113
-2.481064 -0.471094 1.200000 134 52 56
-2.481064 -0.466310 1.195217 134 52 56
-2.481064 -0.470594 1.220000 102 72 82
-2.481064 -0.482266 1.240000 144 51 60
-2.481064 -0.466310 1.224284 102 72 82
-2.481064 -0.466310 1.256601 90 87 95
-2.482708 -0.466310 1.500000 111 111 112
-2.481064 -0.477989 1.500000 102 102 102
-2.481064 -0.466310 1.491509 111 111 112
-2.484019 -0.466310 1.520000 100 100 101
-2.486548 -0.466310 1.540000 90 89 94
-2.489838 -0.466310 1.560000 85 83 94
-2.493432 -0.466310 1.580000 102 100 105
-2.494861 -0.466310 1.600000 123 121 122
-2.496909 -0.466310 1.620000 121 124 123
-2.499978 -0.466310 1.640000 122 126 129
-2.488346 -0.446310 1.160000 136 57 62
-2.481064 -0.453592 1.160000 136 57 62
-2.481064 -0.446310 1.152718 136 57 62
-2.481064 -0.450928 1.180000 93 74 84
-2.481064 -0.448972 1.240000 99 97 102
-2.483043 -0.446310 1.500000 110 110 109
-2.481064 -0.446310 1.488062 111 110 109
-2.484695 -0.446310 1.520000 108 109 107
-2.488111 -0.446310 1.540000 113 111 110
-2.490095 -0.446310 1.560000 90 90 94
-2.494495 -0.446310 1.580000 85 84 89
-2.498459 -0.446310 1.600000 121 120 123
-2.500491 -0.446310 1.620000 125 130 128
-2.481064 -0.426310 1.154208 123 122 119
-2.482445 -0.426310 1.500000 121 120 120
-2.481064 -0.426310 1.488961 113 114 114
-2.484501 -0.426310 1.520000 125 121 119
-2.488926 -0.426310 1.540000 121 122 118
-2.491888 -0.426310 1.560000 121 125 121
-2.495245 -0.426310 1.580000 101 101 105
-2.499122 -0.426310 1.600000 93 95 103
-2.487081 -0.406310 1.140000 243 244 239
-2.481064 -0.412327 1.140000 243 244 239
-2.481064 -0.406310 1.133983 243 244 239
-2.484160 -0.406310 1.500000 128 126 124
-2.481064 -0.406310 1.481659 130 129 126
-2.488040 -0.406310 1.520000 127 128 128
-2.490015 -0.406310 1.540000 128 132 127
-2.495132 -0.406310 1.560000 129 132 126
-2.497200 -0.406310 1.580000 126 129 124
-2.499938 -0.406310 1.600000 112 115 116
-2.499206 -0.406310 1.660000 123 126 130
-2.481064 -0.400294 1.140000 243 244 239
-2.481064 -0.386310 1.155644 250 250 249
-2.483359 -0.386310 1.480000 162 158 153
-2.481064 -0.404214 1.480000 130 129 126
-2.481064 -0.386310 1.477467 162 158 153
-2.484948 -0.386310 1.500000 131 135 131
-2.489240 -0.386310 1.520000 134 137 130
-2.490956 -0.386310 1.540000 125 127 125
-2.494992 -0.386310 1.560000 118 119 120
-2.497528 -0.386310 1.580000 134 139 136
-2.500609 -0.386310 1.600000 126 132 129
-2.500734 -0.386310 1.660000 96 103 105
-2.481064 -0.366310 1.154516 251 250 252
-2.483103 -0.366310 1.480000 165 162 154
-2.481064 -0.366310 1.477453 165 162 154
-2.486959 -0.366310 1.500000 142 147 142
-2.488789 -0.366310 1.520000 136 140 138
-2.492548 -0.366310 1.540000 138 143 139
-2.496388 -0.366310 1.560000 131 138 133
-2.498647 -0.366310 1.580000 123 125 121
-2.481064 -0.360826 1.160000 251 250 252
-2.481064 -0.346310 1.176121 251 251 251
-2.481064 -0.358600 1.480000 165 162 154
-2.488094 -0.346310 1.500000 162 162 156
-2.481064 -0.346310 1.487982 170 170 164
-2.490526 -0.346310 1.520000 141 142 138
-2.493910 -0.346310 1.540000 137 142 139
-2.498538 -0.346310 1.560000 135 140 136
-2.500943 -0.346310 1.580000 131 138 135
-2.481064 -0.326310 1.175475 250 251 250
-2.486107 -0.326310 1.500000 166 164 158
-2.481064 -0.326310 1.493592 166 164 158
-2.491999 -0.326310 1.520000 160 161 155
-2.495563 -0.326310 1.540000 140 140 137
-2.498508 -0.326310 1.560000 138 145 139
-2.485582 -0.306310 1.180000 253 253 253
-2.481064 -0.306310 1.175483 253 253 253
-2.481064 -0.312570 1.500000 169 170 163
-2.492582 -0.306310 1.520000 165 163 156
-2.481064 -0.306310 1.504633 169 170 163
-2.496324 -0.306310 1.540000 148 151 147
-2.499618 -0.306310 1.560000 137 143 140
-2.481064 -0.301793 1.180000 253 253 253
-2.481064 -0.286310 1.193207 250 251 251
-2.493240 -0.286310 1.220000 250 250 248
-2.481064 -0.299587 1.220000 253 252 250
-2.481064 -0.286310 1.206793 250 251 251
-2.481064 -0.286310 1.233465 211 210 207
-2.488793 -0.286310 1.520000 163 163 155
-2.481064 -0.286310 1.508897 167 166 161
-2.497802 -0.286310 1.540000 159 159 152
-2.481064 -0.266310 1.192939 251 252 250
-2.481064 -0.272364 1.220000 223 224 222
-2.482203 -0.266310 1.520000 165 166 160
-2.481064 -0.266310 1.518480 165 166 160
-2.497290 -0.266310 1.540000 159 159 151
-2.487453 -0.246310 1.200000 253 253 253
-2.481064 -0.246310 1.193611 253 253 253
-2.481064 -0.261969 1.520000 165 166 160
-2.491939 -0.246310 1.540000 168 170 164
-2.481064 -0.246310 1.524802 163 163 159
-2.489709 -0.226310 1.200000 251 251 251
-2.481064 -0.226310 1.191355 251 251 251
-2.485632 -0.226310 1.540000 162 166 159
-2.481064 -0.226310 1.533571 162 166 159
-2.481064 -0.217666 1.200000 251 251 251
-2.481064 -0.206310 1.213016 251 251 251
-2.481064 -0.211162 1.540000 160 163 157
-2.493450 -0.206310 1.560000 163 166 158
-2.481064 -0.206310 1.541893 160 163 157
-2.487951 -0.186310 1.220000 251 251 251
-2.481064 -0.186310 1.213113 251 251 251
-2.487032 -0.186310 1.560000 154 156 153
-2.481064 -0.186310 1.551807 154 156 153
-2.481064 -0.179424 1.220000 251 251 251
-2.481064 -0.166310 1.232858 248 248 249
-2.481064 -0.176923 1.560000 154 156 153
-2.489506 -0.166310 1.580000 143 146 141
-2.481064 -0.166310 1.566575 152 154 150
-2.481064 -0.159169 1.240000 248 248 249
-2.481064 -0.146310 1.252906 248 248 247
-2.492599 -0.146310 1.580000 149 150 147
-2.481064 -0.146310 1.567478 163 171 164
-2.481064 -0.126310 1.252665 248 248 249
-2.484393 -0.126310 1.560000 179 182 178
-2.481064 -0.132254 1.560000 179 182 178
-2.481064 -0.126310 1.554564 179 182 178
-2.487869 -0.106310 1.260000 251 252 247
-2.481064 -0.106310 1.253195 251 252 247
-2.483440 -0.106310 1.540000 177 178 173
-2.481064 -0.112526 1.540000 177 178 173
-2.481064 -0.106310 1.537308 177 178 173
-2.481064 -0.099505 1.260000 251 252 247
-2.481064 -0.086310 1.272536 250 250 250
-2.491977 -0.086310 1.540000 193 194 189
-2.481064 -0.086310 1.527002 190 192 189
-2.481064 -0.078846 1.280000 250 250 250
-2.481064 -0.066310 1.292544 253 253 251
-2.481064 -0.066310 1.524197 188 193 187
-2.481064 -0.058854 1.300000 253 253 251
-2.481064 -0.046310 1.312711 253 253 252
-2.493409 -0.046310 1.480000 187 192 186
-2.481064 -0.059856 1.480000 189 191 189
-2.481064 -0.046310 1.468015 186 186 181
-2.493964 -0.046310 1.500000 139 138 142
-2.481064 -0.058566 1.500000 190 191 186
-2.481064 -0.062113 1.520000 188 193 187
-2.481064 -0.039021 1.320000 253 253 252
-2.487095 -0.026310 1.340000 255 255 255
-2.481064 -0.026310 1.333969 255 255 255
-2.494601 -0.026310 1.440000 186 188 183
-2.481064 -0.038981 1.440000 186 189 182
-2.481064 -0.026310 1.425809 185 190 185
-2.481064 -0.038295 1.460000 186 186 181
-2.481064 -0.020280 1.340000 255 255 255
-2.481064 -0.019225 1.360000 239 240 240
-2.494099 -0.006310 1.380000 255 255 255
-2.481064 -0.019110 1.380000 205 206 210
-2.481064 -0.020481 1.400000 194 196 197
-2.481064 -0.006310 1.414385 157 167 179
-2.481064 -0.006310 1.425615 157 167 179
-2.481064 -0.000695 1.420000 157 167 179
-2.490535 0.473690 1.300000 158 169 173
-2.481064 0.464219 1.300000 158 169 173
-2.481064 0.473690 1.290530 158 169 173
-2.481064 0.473690 1.309470 158 169 173
-2.489260 0.493690 1.300000 155 173 177
-2.481064 0.493690 1.291805 155 173 177
-2.481064 0.493690 1.308195 155 173 177
-2.481064 0.501885 1.300000 155 173 177
-2.481064 0.504368 1.320000 149 167 172
-2.481064 0.513690 1.310678 149 167 172
-2.481064 0.513690 1.329322 149 167 172
-2.481064 0.533690 1.312565 159 172 176
-2.481064 0.533690 1.327435 159 172 176
-2.481064 0.553690 1.317186 169 179 190
-2.481064 0.544828 1.340000 152 164 169
-2.481064 0.553690 1.348862 152 164 169
-2.481064 0.564993 1.320000 153 172 176
-2.481064 0.573690 1.324062 153 172 176
-2.490454 0.573690 1.360000 155 177 180
-2.481064 0.564300 1.360000 155 177 180
-2.481064 0.573690 1.369390 155 177 180
-2.481064 0.593690 1.337819 166 178 186
-2.481064 0.593690 1.368481 152 166 174
-2.481064 0.600266 1.340000 166 178 186
-2.481064 0.613690 1.346751 160 173 180
-2.481064 0.604075 1.380000 159 176 181
-2.481064 0.613690 1.389615 159 176 181
-2.481064 0.633690 1.357318 153 167 176
-2.481064 0.633690 1.388361 159 174 182
-2.481064 0.637888 1.360000 153 167 176
-2.481064 0.653690 1.369581 160 175 189
-2.481064 0.644627 1.400000 160 175 191
-2.481064 0.653690 1.409062 160 175 191
-2.481064 0.673690 1.378379 166 177 184
-2.481064 0.664089 1.420000 152 166 170
-2.481064 0.673690 1.429600 152 166 170
-2.481064 0.676697 1.380000 166 177 184
-2.481064 0.693690 1.389280 167 181 190
-2.481064 0.693690 1.429000 180 195 205
-2.481064 0.713690 1.398440 164 177 186
-2.481064 0.703886 1.440000 168 188 199
-2.481064 0.713690 1.449803 168 188 199
-2.481064 0.716483 1.400000 164 177 186
-2.481064 0.733690 1.409862 172 186 196
-2.481064 0.733690 1.448839 168 180 188
-2.481064 0.753690 1.418495 172 183 191
-2.481064 0.744184 1.460000 190 201 210
-2.481064 0.753690 1.469505 190 201 210
-2.481064 0.756420 1.420000 172 183 191
-2.481064 0.773690 1.430982 162 173 182
-2.481064 0.773690 1.468335 168 185 192
-2.481064 0.793690 1.437374 150 162 169
-2.481064 0.784835 1.480000 135 150 160
-2.481064 0.793690 1.488855 135 150 160
-2.481064 0.800988 1.440000 150 162 169
-2.481064 0.813690 1.445192 141 151 164
-2.481064 0.813690 1.488454 150 165 173
-2.481064 0.833690 1.450441 134 148 159
-2.481064 0.824366 1.500000 129 145 157
-2.481064 0.833690 1.509324 129 145 157
-2.481064 0.853690 1.452728 133 144 154
-2.481064 0.853690 1.508187 131 142 151
-2.481064 0.871013 1.440000 141 157 164
-2.481064 0.873690 1.431580 141 157 164
-2.481064 0.864204 1.520000 136 149 165
-2.481064 0.873690 1.529485 136 149 165
-2.481064 0.886111 1.420000 152 163 172
-2.481064 0.893690 1.413881 152 163 172
-2.481064 0.893690 1.529508 142 161 171
-2.481064 0.913690 1.417076 155 164 174
-2.481064 0.913690 1.529124 151 167 178
-2.481064 0.933690 1.413574 152 163 170
-2.481064 0.933690 1.527949 143 156 168
-2.481064 0.953690 1.411274 166 170 184
-2.481064 0.944723 1.540000 156 172 183
-2.481064 0.953690 1.548967 156 172 183
-2.481064 0.962415 1.420000 166 170 184
-2.481064 0.973690 1.430844 167 176 187
-2.491135 0.973690 1.540000 155 169 182
-2.481064 0.962657 1.540000 156 172 183
-2.481064 0.973690 1.529752 160 173 183
-2.481064 0.982846 1.440000 167 176 187
-2.481064 0.993690 1.450335 165 178 184
-2.491596 0.993690 1.480000 186 199 205
-2.481064 0.982947 1.480000 152 164 175
-2.481064 0.993690 1.469665 165 178 184
-2.481064 0.983354 1.500000 145 158 169
-2.481064 0.983441 1.520000 160 173 183
-2.481064 1.003355 1.460000 165 178 184
-2.470095 -1.546310 3.100000 196 77 81
-2.461064 -1.555341 3.100000 196 77 81
-2.461064 -1.546310 3.090970 196 77 81
-2.461064 -1.546310 3.109030 196 77 81
-2.461064 -1.537280 3.100000 196 77 81
-2.471036 -1.526310 3.120000 196 80 83
-2.461064 -1.536282 3.120000 196 80 83
-2.461064 -1.526310 3.110029 196 80 83
-2.461064 -1.526310 3.129971 196 80 83
-2.470207 -1.506310 3.100000 180 56 56
-2.461064 -1.515453 3.100000 180 56 56
-2.461064 -1.506310 3.090858 180 56 56
-2.470289 -1.506310 3.120000 208 135 132
-2.461064 -1.516066 3.140000 222 162 162
-2.471129 -1.506310 3.160000 248 223 218
-2.461064 -1.506310 3.149755 222 162 162
-2.461064 -1.494118 3.080000 220 151 150
-2.461064 -1.486310 3.072193 220 151 150
-2.461064 -1.486310 3.149837 237 202 199
-2.461064 -1.470593 3.060000 212 137 135
-2.461064 -1.466310 3.049246 241 216 208
-2.470910 -1.466310 3.160000 143 47 49
-2.461064 -1.476156 3.160000 143 47 49
-2.471052 -1.466310 3.180000 130 55 59
-2.461064 -1.476298 3.180000 130 55 59
-2.461064 -1.466310 3.189988 130 55 59
-2.461064 -1.449231 3.040000 189 88 85
-2.461064 -1.446310 3.037557 189 88 85
-2.470998 -1.446310 3.180000 137 51 54
-2.461064 -1.446310 3.189934 137 51 54
-2.461064 -1.426310 3.039765 169 72 73
-2.461064 -1.426310 3.189845 144 50 55
-2.470919 -1.426310 3.220000 117 82 80
-2.461064 -1.436165 3.220000 117 82 80
-2.461064 -1.426310 3.210145 117 82 80
-2.461064 -1.426310 3.229855 117 82 80
-2.461064 -1.425973 3.040000 169 72 73
-2.461064 -1.406310 3.052732 155 73 70
-2.471279 -1.406310 3.200000 100 79 74
-2.461064 -1.406310 3.189643 130 95 93
-2.470841 -1.406310 3.220000 102 86 86
-2.461064 -1.406310 3.210223 102 86 86
-2.461064 -1.406310 3.229777 102 86 86
-2.461064 -1.394591 3.060000 145 53 52
-2.461064 -1.386310 3.064954 145 53 52
-2.461064 -1.396053 3.200000 124 116 115
-2.461064 -1.396534 3.220000 102 86 86
-2.461064 -1.386310 3.209743 124 116 115
-2.461064 -1.366310 3.076140 110 79 76
-2.471366 -1.366310 3.220000 94 89 96
-2.461064 -1.366310 3.209643 102 94 97
-2.461064 -1.360374 3.080000 110 79 76
-2.461064 -1.346310 3.086987 97 87 85
-2.461064 -1.355890 3.220000 94 90 94
-2.471438 -1.346310 3.240000 97 92 99
-2.461064 -1.346310 3.229579 94 90 94
-2.480124 -1.326310 3.100000 88 81 85
-2.461064 -1.326310 3.098883 87 79 82
-2.461064 -1.335410 3.240000 92 88 89
-2.461064 -1.326310 3.249100 92 88 89
-2.461064 -1.324360 3.100000 87 79 82
-2.461064 -1.306310 3.110898 83 76 78
-2.461064 -1.306310 3.248933 87 83 83
-2.471051 -1.306310 3.280000 96 84 87
-2.461064 -1.316297 3.280000 96 84 87
-2.461064 -1.306310 3.270014 96 84 87
-2.461064 -1.306310 3.289986 96 84 87
-2.477475 -1.286310 3.120000 81 74 77
-2.461064 -1.288813 3.120000 80 75 75
-2.461064 -1.286310 3.121096 80 75 75
-2.461064 -1.297378 3.240000 87 83 83
-2.461064 -1.286310 3.229670 76 73 72
-2.471057 -1.286310 3.280000 89 80 83
-2.461064 -1.286310 3.270007 89 80 83
-2.461064 -1.286310 3.289993 89 80 83
-2.461064 -1.283628 3.120000 80 75 75
-2.461064 -1.266310 3.115171 78 73 75
-2.470770 -1.266310 3.220000 79 76 80
-2.461064 -1.266310 3.229706 79 76 80
-2.461064 -1.276318 3.280000 89 80 83
-2.461064 -1.253306 3.100000 78 74 76
-2.461064 -1.246310 3.093727 78 74 76
-2.470180 -1.246310 3.180000 74 70 65
-2.461064 -1.256835 3.200000 76 73 74
-2.461064 -1.246310 3.189116 74 70 65
-2.461064 -1.256605 3.220000 79 76 80
-2.470981 -1.246310 3.260000 83 84 86
-2.461064 -1.256227 3.260000 83 84 86
-2.461064 -1.246310 3.250083 83 84 86
-2.470999 -1.246310 3.280000 81 83 83
-2.461064 -1.256245 3.280000 81 83 83
-2.461064 -1.246310 3.289934 81 83 83
-2.461064 -1.237443 3.080000 79 76 80
-2.461064 -1.226310 3.064176 79 79 77
-2.470682 -1.226310 3.160000 95 89 86
-2.461064 -1.237195 3.180000 74 70 65
-2.461064 -1.226310 3.169617 95 89 86
-2.470730 -1.226310 3.260000 84 81 90
-2.461064 -1.226310 3.250334 84 81 90
-2.461064 -1.236376 3.280000 81 83 83
-2.461064 -1.226310 3.269666 84 81 90
-2.478036 -1.206310 3.020000 77 71 68
-2.461064 -1.213204 3.040000 83 81 74
-2.461064 -1.206310 3.024246 81 76 72
-2.461064 -1.223351 3.060000 79 79 77
-2.461064 -1.216693 3.160000 95 89 86
-2.461064 -1.206310 3.149738 97 94 94
-2.461064 -1.216645 3.260000 84 81 90
-2.461064 -1.190394 3.000000 79 74 72
-2.461064 -1.186310 2.992775 79 74 72
-2.461064 -1.203209 3.020000 81 76 72
-2.461064 -1.186310 3.149733 93 90 93
-2.461064 -1.172004 2.980000 75 70 68
-2.461064 -1.166310 2.974250 75 70 68
-2.470839 -1.166310 3.140000 97 95 96
-2.461064 -1.166310 3.149775 97 95 96
-2.476790 -1.146310 2.960000 75 71 69
-2.461064 -1.146310 2.965465 75 71 68
-2.461064 -1.156560 3.120000 93 90 93
-2.461064 -1.146310 3.109747 92 87 90
-2.461064 -1.156535 3.140000 97 95 96
-2.470611 -1.146310 3.300000 131 103 99
-2.461064 -1.155857 3.300000 131 103 99
-2.461064 -1.146310 3.290454 131 103 99
-2.461064 -1.146310 3.309546 131 103 99
-2.463196 -1.126310 2.960000 72 69 67
-2.461064 -1.126310 2.961168 72 69 67
-2.461064 -1.126310 3.109227 94 90 87
-2.461064 -1.136764 3.300000 131 103 99
-2.470466 -1.126310 3.320000 155 116 101
-2.461064 -1.135712 3.320000 155 116 101
-2.461064 -1.126310 3.310598 155 116 101
-2.461064 -1.126310 3.329402 155 116 101
-2.476637 -1.106310 2.940000 72 70 68
-2.461064 -1.123206 2.960000 72 69 67
-2.461064 -1.106310 2.951869 75 73 69
-2.461064 -1.117084 3.100000 94 90 87
-2.461064 -1.106310 3.089806 180 185 190
-2.461064 -1.116909 3.320000 155 116 101
-2.461064 -1.116029 3.340000 162 115 110
-2.461064 -1.106310 3.330281 162 115 110
-2.461064 -1.106310 3.349719 162 115 110
-2.468896 -1.106310 3.380000 179 134 135
-2.461064 -1.114142 3.380000 179 134 135
-2.461064 -1.106310 3.372169 179 134 135
-2.461064 -1.106310 3.387831 179 134 135
-2.464012 -1.086310 2.940000 79 80 79
-2.461064 -1.086310 2.942200 79 80 79
-2.461064 -1.086310 3.089524 182 182 187
-2.470740 -1.086310 3.300000 146 106 104
-2.461064 -1.095986 3.300000 146 106 104
-2.461064 -1.086310 3.290325 146 106 104
-2.469399 -1.086310 3.320000 190 159 157
-2.461064 -1.094645 3.320000 190 159 157
-2.470811 -1.086310 3.340000 195 171 166
-2.461064 -1.095519 3.360000 224 214 212
-2.471101 -1.086310 3.400000 156 125 130
-2.461064 -1.086310 3.386376 144 108 112
-2.475453 -1.066310 2.920000 81 83 81
-2.461064 -1.081099 2.940000 79 80 79
-2.461064 -1.066310 2.933118 88 89 89
-2.461064 -1.066310 3.089573 203 201 203
-2.467631 -1.066310 3.300000 247 242 246
-2.461064 -1.066310 3.293433 247 242 246
-2.461064 -1.066310 3.389772 172 133 131
-2.461064 -1.047357 2.920000 106 99 96
-2.461064 -1.046310 2.919287 106 99 96
-2.470870 -1.046310 3.080000 191 193 197
-2.461064 -1.046310 3.089806 191 193 197
-2.461064 -1.055141 3.280000 233 232 228
-2.461064 -1.046310 3.271169 233 232 228
-2.461064 -1.046310 3.389849 223 212 213
-2.467204 -1.026310 2.900000 102 98 99
-2.461064 -1.026310 2.905669 102 98 99
-2.461064 -1.036505 3.080000 191 193 197
-2.461064 -1.026310 3.069728 166 160 158
-2.471083 -1.026310 3.100000 72 58 57
-2.468811 -1.026310 3.200000 227 209 209
-2.461064 -1.034057 3.200000 227 209 209
-2.461064 -1.026310 3.192253 227 209 209
-2.461064 -1.029910 3.220000 253 254 254
-2.461064 -1.034610 3.240000 231 222 222
-2.461064 -1.030574 3.260000 231 225 223
-2.461064 -1.036462 3.380000 223 212 213
-2.461064 -1.026310 3.369555 229 211 209
-2.472693 -1.006310 2.880000 100 93 87
-2.461064 -1.018184 2.900000 102 98 99
-2.461064 -1.006310 2.891819 95 78 75
-2.461064 -1.006310 3.068919 109 95 96
-2.461064 -1.007260 3.200000 249 247 247
-2.461064 -1.006310 3.201004 249 247 247
-2.461064 -1.022047 3.260000 231 225 223
-2.461064 -1.006310 3.244966 228 209 203
-2.461064 -1.018849 3.280000 231 225 226
-2.461064 -1.016956 3.300000 229 227 224
-2.461064 -1.017623 3.320000 242 233 233
-2.461064 -1.017200 3.340000 231 221 218
-2.461064 -1.016755 3.360000 229 211 209
-2.469844 -1.006310 3.480000 176 162 159
-2.461064 -1.015090 3.480000 176 162 159
-2.461064 -1.006310 3.471220 176 162 159
-2.461064 -1.006310 3.488780 176 162 159
-2.474063 -0.986310 2.860000 72 71 73
-2.461064 -0.989401 2.880000 85 76 73
-2.461064 -0.986310 2.877443 85 76 73
-2.461064 -0.986310 3.066728 72 59 55
-2.468872 -0.986310 3.180000 255 254 252
-2.461064 -1.003869 3.180000 251 251 253
-2.461064 -0.986310 3.172192 255 254 252
-2.461064 -0.986310 3.187808 255 254 252
-2.461064 -0.998841 3.220000 255 255 255
-2.461064 -1.001344 3.240000 228 209 203
-2.468518 -0.986310 3.480000 93 74 70
-2.461064 -0.986310 3.472547 93 74 70
-2.471843 -0.986310 3.500000 117 99 97
-2.461064 -0.986310 3.487453 93 74 70
-2.463282 -0.966310 2.840000 71 69 74
-2.461064 -0.971636 2.860000 77 67 73
-2.461064 -0.966310 2.845556 71 69 74
-2.469955 -0.966310 3.040000 255 251 255
-2.469627 -0.966310 3.060000 250 255 251
-2.471021 -0.966310 3.080000 254 255 255
-2.461064 -0.976267 3.080000 254 255 255
-2.461064 -0.966310 3.089957 254 255 255
-2.468977 -0.966310 3.140000 255 255 255
-2.461064 -0.974223 3.140000 255 255 255
-2.461064 -0.966310 3.132088 255 255 255
-2.471625 -0.966310 3.160000 255 255 255
-2.461064 -0.966310 3.147912 255 255 255
-2.461064 -0.978503 3.180000 255 254 252
-2.461064 -0.978857 3.480000 93 74 70
-2.461064 -0.949261 2.800000 74 77 82
-2.461064 -0.946310 2.796829 74 77 82
-2.461064 -0.959693 2.820000 66 67 76
-2.461064 -0.965370 2.840000 71 69 74
-2.461064 -0.957748 3.060000 250 255 251
-2.461064 -0.946310 3.049354 252 252 251
-2.461064 -0.956354 3.080000 254 255 255
-2.461064 -0.958398 3.140000 255 255 255
-2.461064 -0.926353 2.740000 85 91 94
-2.461064 -0.926310 2.739911 85 91 94
-2.461064 -0.929490 2.760000 88 92 95
-2.461064 -0.932413 2.780000 75 82 86
-2.461064 -0.936110 3.060000 255 253 251
-2.471056 -0.926310 3.080000 137 104 99
-2.461064 -0.936302 3.080000 137 104 99
-2.461064 -0.926310 3.089992 137 104 99
-2.465917 -0.906310 2.700000 89 95 94
-2.461064 -0.906621 2.700000 89 95 94
-2.461064 -0.906310 2.699535 89 95 94
-2.461064 -0.916845 2.720000 89 91 94
-2.465791 -0.906310 2.780000 76 81 88
-2.461064 -0.916319 3.080000 137 104 99
-2.461064 -0.906310 3.068983 141 114 105
-2.461064 -0.889762 2.680000 92 96 100
-2.461064 -0.886310 2.675215 92 96 100
-2.473286 -0.886310 3.060000 230 212 198
-2.461064 -0.897327 3.060000 141 114 105
-2.461064 -0.886310 3.047175 153 138 131
-2.477735 -0.866310 2.680000 89 92 93
-2.461064 -0.866310 2.676040 93 95 97
-2.470888 -0.866310 3.020000 143 132 128
-2.461064 -0.879136 3.040000 153 138 131
-2.461064 -0.866310 3.029824 143 132 128
-2.461064 -0.861374 2.680000 93 95 97
-2.470796 -0.846310 2.700000 70 83 96
-2.461064 -0.846310 2.692258 70 83 96
-2.472031 -0.846310 2.960000 75 71 68
-2.461064 -0.857652 2.960000 93 93 111
-2.461064 -0.846310 2.948900 72 71 85
-2.461064 -0.857617 2.980000 64 57 70
-2.461064 -0.857959 3.000000 58 45 51
-2.461064 -0.856486 3.020000 143 132 128
-2.461064 -0.843020 2.700000 70 83 96
-2.461064 -0.830405 2.720000 56 71 81
-2.461064 -0.826310 2.726048 56 71 81
-2.461064 -0.837410 2.940000 72 71 85
-2.461064 -0.826310 2.929633 70 66 67
-2.461064 -0.806310 2.732335 57 66 72
-2.461064 -0.817169 2.900000 51 55 69
-2.461064 -0.806310 2.889384 45 47 61
-2.461064 -0.816677 2.920000 70 66 67
-2.467023 -0.786310 2.720000 65 69 74
-2.461064 -0.787879 2.720000 65 69 74
-2.461064 -0.786310 2.719069 65 69 74
-2.469172 -0.786310 2.860000 53 64 84
-2.461064 -0.796927 2.880000 45 47 61
-2.461064 -0.786310 2.868107 53 64 84
-2.478108 -0.766310 2.220000 113 118 120
-2.461064 -0.766310 2.708663 77 81 89
-2.470385 -0.766310 2.820000 190 197 213
-2.470634 -0.766310 2.840000 245 255 255
-2.470811 -0.766310 2.860000 64 76 92
-2.470020 -0.766310 2.880000 142 112 122
-2.461064 -0.775266 2.880000 142 112 122
-2.470978 -0.766310 2.900000 153 117 127
-2.461064 -0.776224 2.900000 153 117 127
-2.461064 -0.766310 2.909914 153 117 127
-2.468603 -0.766310 2.980000 202 209 217
-2.461064 -0.773849 2.980000 202 209 217
-2.461064 -0.766310 2.972462 202 209 217
-2.473598 -0.766310 3.000000 198 205 215
-2.461064 -0.773042 3.000000 161 161 184
-2.480357 -0.766310 3.020000 177 172 192
-2.461064 -0.766310 3.006731 161 161 184
-2.479362 -0.766310 3.040000 180 172 193
-2.473240 -0.746310 2.220000 123 125 134
-2.461064 -0.746310 2.706447 127 125 120
-2.470830 -0.746310 2.800000 73 72 77
-2.473170 -0.746310 2.820000 194 190 204
-2.461064 -0.756989 2.820000 190 197 213
-2.461064 -0.746310 2.809765 73 72 77
-2.470514 -0.746310 2.840000 158 145 153
-2.461064 -0.746310 2.830550 158 145 153
-2.470191 -0.746310 2.860000 110 86 83
-2.473633 -0.746310 2.920000 116 86 75
-2.461064 -0.746310 2.908483 125 114 111
-2.465036 -0.746310 2.940000 179 174 181
-2.461064 -0.750282 2.940000 179 174 181
-2.461064 -0.746310 2.936028 179 174 181
-2.461064 -0.753636 2.960000 173 197 241
-2.461064 -0.754648 3.020000 255 245 246
-2.472892 -0.746310 3.040000 255 248 251
-2.461064 -0.746310 3.028338 255 245 246
-2.473657 -0.746310 3.060000 241 220 215
-2.464076 -0.726310 2.220000 120 124 130
-2.476215 -0.726310 2.240000 119 122 126
-2.468231 -0.726310 2.720000 111 110 109
-2.461064 -0.726310 2.702271 112 111 120
-2.469685 -0.726310 2.740000 184 159 138
-2.469432 -0.726310 2.760000 177 157 143
-2.461064 -0.735740 2.820000 217 211 213
-2.470566 -0.726310 2.840000 160 152 155
-2.471452 -0.726310 2.900000 117 89 88
-2.461064 -0.737827 2.900000 125 114 111
-2.461064 -0.726310 2.887900 117 89 88
-2.470789 -0.726310 2.920000 163 174 180
-2.461064 -0.736035 2.920000 163 174 180
-2.461064 -0.726310 2.910276 163 174 180
-2.461635 -0.726310 3.000000 233 209 205
-2.461064 -0.730824 3.000000 233 209 205
-2.461064 -0.726310 2.998708 233 209 205
-2.461064 -0.729398 3.020000 119 85 84
-2.461064 -0.731459 3.040000 112 80 83
-2.461064 -0.726310 3.025471 119 85 84
-2.473543 -0.726310 3.060000 121 90 87
-2.461064 -0.726310 3.045149 112 80 83
-2.461064 -0.714597 2.220000 120 123 121
-2.461064 -0.706310 2.215726 120 123 121
-2.473799 -0.706310 2.240000 118 121 122
-2.461064 -0.706310 2.220755 120 123 121
-2.461064 -0.719144 2.720000 111 110 109
-2.469605 -0.706310 2.740000 194 161 129
-2.461064 -0.706310 2.731460 194 161 129
-2.461064 -0.717943 2.760000 177 157 143
-2.461064 -0.706310 2.748540 194 161 129
-2.461064 -0.706310 2.770677 226 207 200
-2.468576 -0.706310 2.800000 245 249 252
-2.469182 -0.706310 2.820000 236 233 235
-2.474477 -0.706310 2.860000 213 211 214
-2.461064 -0.716786 2.860000 133 125 128
-2.461064 -0.706310 2.847205 232 230 233
-2.461064 -0.718410 2.880000 117 89 88
-2.461064 -0.716586 2.920000 163 174 180
-2.465258 -0.706310 2.940000 153 156 163
-2.461064 -0.706310 2.935807 153 156 163
-2.461064 -0.720576 2.980000 169 143 139
-2.461064 -0.706310 2.964275 230 234 233
-2.461064 -0.721162 3.040000 112 80 83
-2.463063 -0.686310 1.560000 164 48 61
-2.461064 -0.688309 1.560000 164 48 61
-2.461064 -0.686310 1.558001 164 48 61
-2.461064 -0.686310 1.564847 164 48 61
-2.461064 -0.686310 2.215027 113 116 119
-2.466151 -0.686310 2.240000 115 115 117
-2.461064 -0.686310 2.224965 113 116 119
-2.479913 -0.686310 2.260000 122 119 120
-2.461064 -0.697770 2.740000 194 161 129
-2.461064 -0.696987 2.780000 226 207 200
-2.461064 -0.698799 2.800000 245 249 252
-2.461064 -0.698193 2.820000 236 233 235
-2.461064 -0.699106 2.840000 232 230 233
-2.470104 -0.686310 2.860000 254 250 249
-2.461064 -0.695350 2.860000 254 250 249
-2.461064 -0.686310 2.850961 254 250 249
-2.471616 -0.686310 2.880000 255 253 252
-2.461064 -0.686310 2.869039 254 250 249
-2.461064 -0.702117 2.940000 153 156 163
-2.461064 -0.702035 2.960000 230 234 233
-2.461064 -0.680908 1.560000 164 48 61
-2.461064 -0.666310 2.211000 150 144 137
-2.461064 -0.676697 2.240000 115 115 117
-2.476098 -0.666310 2.260000 193 176 151
-2.461064 -0.666310 2.241957 185 171 149
-2.461064 -0.677271 2.860000 254 250 249
-2.478487 -0.646310 1.500000 213 177 159
-2.462320 -0.646310 2.220000 202 186 165
-2.461064 -0.646310 2.218744 202 186 165
-2.473210 -0.646310 2.260000 193 171 141
-2.461064 -0.646310 2.244568 214 189 160
-2.468136 -0.646310 2.400000 104 112 107
-2.461064 -0.651428 2.400000 104 112 107
-2.461064 -0.646310 2.394650 104 112 107
-2.461064 -0.658794 2.420000 110 108 107
-2.461064 -0.646310 2.428662 113 110 122
-2.461064 -0.645055 2.220000 202 186 165
-2.461064 -0.626310 2.237631 181 166 140
-2.461064 -0.626876 2.260000 135 123 114
-2.480410 -0.626310 2.280000 108 98 98
-2.461064 -0.626310 2.260327 135 123 114
-2.480616 -0.626310 2.380000 121 122 117
-2.461064 -0.632877 2.380000 102 105 105
-2.461064 -0.626310 2.372456 102 105 105
-2.461064 -0.626310 2.429588 120 128 140
-2.478013 -0.606310 1.420000 183 150 131
-2.463454 -0.606310 2.240000 82 85 91
-2.461064 -0.606310 2.237611 82 85 91
-2.474065 -0.606310 2.280000 77 79 92
-2.461064 -0.606310 2.264015 78 80 93
-2.461064 -0.614569 2.360000 118 119 114
-2.461064 -0.606310 2.350225 118 119 114
-2.461064 -0.606310 2.429590 87 76 77
-2.478817 -0.586310 1.380000 176 140 116
-2.476327 -0.586310 1.420000 148 62 72
-2.477702 -0.586310 1.440000 148 49 64
-2.479936 -0.586310 1.460000 140 50 65
-2.480368 -0.586310 1.480000 119 57 69
-2.461064 -0.603921 2.240000 82 85 91
-2.465435 -0.586310 2.260000 75 81 91
-2.461064 -0.586310 2.255630 75 81 91
-2.471351 -0.586310 2.280000 74 79 92
-2.461064 -0.586310 2.266742 75 81 91
-2.477610 -0.586310 2.360000 144 135 132
-2.461064 -0.586310 2.351014 121 116 108
-2.461064 -0.596720 2.420000 87 76 77
-2.461064 -0.586310 2.409520 72 70 79
-2.478638 -0.566310 1.380000 145 58 71
-2.475746 -0.566310 1.400000 148 56 66
-2.475496 -0.566310 1.420000 138 51 65
-2.476682 -0.566310 1.440000 117 56 71
-2.477981 -0.566310 1.460000 97 70 82
-2.479340 -0.566310 1.480000 81 75 84
-2.461064 -0.573500 2.260000 76 82 94
-2.461064 -0.574751 2.280000 74 78 88
-2.461064 -0.566310 2.265621 76 82 94
-2.472631 -0.566310 2.300000 72 76 84
-2.461064 -0.566310 2.286790 74 78 88
-2.479703 -0.566310 2.360000 122 114 121
-2.461064 -0.566310 2.353475 133 124 115
-2.461064 -0.566310 2.409658 88 92 103
-2.461064 -0.546338 1.340000 142 53 59
-2.461064 -0.546310 1.339972 142 53 59
-2.472862 -0.546310 1.360000 153 51 64
-2.461064 -0.546310 1.340244 142 53 59
-2.473269 -0.546310 1.380000 130 47 64
-2.473568 -0.546310 1.400000 87 36 55
-2.473989 -0.546310 1.420000 59 36 57
-2.473986 -0.546310 1.440000 70 66 78
-2.474664 -0.546310 1.460000 89 88 95
-2.476760 -0.546310 1.480000 82 81 89
-2.480886 -0.546310 1.500000 72 70 82
-2.464994 -0.546310 2.280000 74 79 89
-2.461064 -0.546310 2.276071 74 79 89
-2.461064 -0.551589 2.300000 76 75 85
-2.461064 -0.546310 2.304376 76 75 85
-2.469964 -0.546310 2.360000 105 93 100
-2.461064 -0.546310 2.352735 105 93 100
-2.461064 -0.556179 2.420000 65 69 80
-2.461064 -0.546310 2.429869 65 69 80
-2.471069 -0.546310 2.520000 117 102 73
-2.466753 -0.526310 1.280000 153 47 57
-2.461064 -0.531943 1.300000 156 55 69
-2.461064 -0.526310 1.282978 153 47 57
-2.468034 -0.526310 1.320000 151 46 60
-2.461064 -0.526310 1.316400 151 46 60
-2.470954 -0.526310 1.340000 127 57 71
-2.461064 -0.546041 1.340000 142 53 59
-2.471738 -0.526310 1.360000 98 55 69
-2.471489 -0.526310 1.380000 47 32 54
-2.471444 -0.526310 1.400000 39 38 57
-2.474391 -0.526310 1.420000 66 67 77
-2.474033 -0.526310 1.440000 91 90 99
-2.472490 -0.526310 1.460000 96 95 101
-2.478423 -0.526310 1.480000 90 90 95
-2.479950 -0.526310 1.500000 80 80 88
-2.461064 -0.542381 2.280000 74 79 89
-2.467222 -0.526310 2.300000 75 80 86
-2.461064 -0.526310 2.293842 75 80 86
-2.461064 -0.526310 2.306158 75 80 86
-2.461064 -0.542344 2.360000 105 93 100
-2.469617 -0.526310 2.380000 72 63 69
-2.461064 -0.526310 2.371448 72 63 69
-2.469971 -0.526310 2.440000 73 64 81
-2.461064 -0.535217 2.440000 73 64 81
-2.474794 -0.526310 2.460000 76 69 87
-2.461064 -0.526310 2.448907 73 64 81
-2.461064 -0.506651 1.260000 149 53 68
-2.461064 -0.506310 1.259659 149 53 68
-2.465756 -0.506310 1.280000 148 49 64
-2.461064 -0.506310 1.266136 149 53 68
-2.464968 -0.506310 1.300000 127 60 71
-2.461064 -0.507884 1.300000 127 60 71
-2.466525 -0.506310 1.320000 101 75 85
-2.467947 -0.506310 1.340000 82 75 85
-2.466890 -0.506310 1.360000 47 45 62
-2.471406 -0.506310 1.380000 53 53 67
-2.472261 -0.506310 1.400000 78 78 86
-2.472464 -0.506310 1.420000 96 96 103
-2.474306 -0.506310 1.440000 98 97 104
-2.474537 -0.506310 1.460000 102 99 105
-2.478925 -0.506310 1.480000 99 96 102
-2.480113 -0.506310 1.500000 81 82 88
-2.480059 -0.506310 2.100000 82 71 113
-2.461064 -0.520152 2.300000 75 80 86
-2.461064 -0.517758 2.380000 72 63 69
-2.461064 -0.518060 2.400000 95 89 88
-2.461064 -0.517959 2.420000 69 69 81
-2.461064 -0.517404 2.440000 73 64 81
-2.470448 -0.506310 2.500000 52 50 55
-2.461064 -0.515694 2.500000 52 50 55
-2.461064 -0.506310 2.490617 52 50 55
-2.461064 -0.506310 2.509383 52 50 55
-2.461064 -0.487223 1.240000 144 50 62
-2.461064 -0.486310 1.239087 144 50 62
-2.463603 -0.486310 1.260000 118 64 75
-2.461064 -0.497181 1.260000 149 53 68
-2.461064 -0.486310 1.253969 118 64 75
-2.463881 -0.486310 1.280000 93 81 88
-2.463345 -0.486310 1.300000 85 84 91
-2.465824 -0.486310 1.320000 83 79 89
-2.465496 -0.486310 1.340000 73 71 83
-2.467603 -0.486310 1.360000 81 80 90
-2.469268 -0.486310 1.380000 93 93 98
-2.470802 -0.486310 1.400000 98 97 103
-2.472321 -0.486310 1.420000 104 103 108
-2.475406 -0.486310 1.440000 107 102 106
-2.476003 -0.486310 1.460000 104 103 105
-2.478909 -0.486310 1.480000 106 105 107
-2.479826 -0.486310 1.500000 102 102 102
-2.461064 -0.496927 2.500000 52 50 55
-2.461064 -0.468041 1.200000 130 50 54
-2.461064 -0.466310 1.198269 130 50 54
-2.461064 -0.467332 1.220000 103 71 81
-2.461064 -0.471554 1.240000 87 82 91
-2.461064 -0.466310 1.235201 87 82 91
-2.461064 -0.476528 1.260000 118 64 75
-2.461064 -0.466310 1.248815 87 82 91
-2.461483 -0.466310 1.280000 95 92 98
-2.461064 -0.466310 1.277256 95 92 98
-2.462949 -0.466310 1.300000 62 62 74
-2.464699 -0.466310 1.320000 88 86 95
-2.465666 -0.466310 1.340000 93 93 99
-2.467120 -0.466310 1.360000 101 97 104
-2.468343 -0.466310 1.380000 107 106 108
-2.470989 -0.466310 1.400000 102 101 103
-2.472476 -0.466310 1.420000 103 103 104
-2.475031 -0.466310 1.440000 111 110 110
-2.476673 -0.466310 1.460000 107 107 108
-2.478673 -0.466310 1.480000 115 112 116
-2.461064 -0.450287 1.160000 136 54 58
-2.461064 -0.446310 1.156024 136 54 58
-2.461064 -0.448389 1.180000 97 76 88
-2.461064 -0.454547 1.240000 95 94 100
-2.461263 -0.446310 1.280000 85 84 93
-2.461064 -0.446310 1.266574 91 89 97
-2.461455 -0.446310 1.300000 84 84 92
-2.462365 -0.446310 1.320000 98 96 102
-2.464254 -0.446310 1.340000 111 109 111
-2.467243 -0.446310 1.360000 103 100 104
-2.468775 -0.446310 1.380000 104 104 107
-2.470916 -0.446310 1.400000 107 107 107
-2.472132 -0.446310 1.420000 108 109 110
-2.474521 -0.446310 1.440000 117 116 118
-2.476352 -0.446310 1.460000 114 114 114
-2.479682 -0.446310 1.480000 111 110 109
-2.461064 -0.426310 1.156171 93 89 93
-2.461453 -0.426310 1.240000 94 93 100
-2.461064 -0.429654 1.240000 94 93 100
-2.461064 -0.426310 1.238592 94 93 100
-2.461064 -0.426310 1.241512 94 93 100
-2.461064 -0.429361 1.280000 84 84 91
-2.461064 -0.438340 1.300000 84 84 92
-2.462527 -0.426310 1.320000 101 101 105
-2.461064 -0.426310 1.305940 104 101 106
-2.465477 -0.426310 1.340000 106 103 106
-2.465339 -0.426310 1.360000 104 104 107
-2.468337 -0.426310 1.380000 108 106 108
-2.465609 -0.426310 1.400000 120 117 116
-2.461064 -0.431463 1.420000 116 112 113
-2.461064 -0.426310 1.409916 120 117 116
-2.468724 -0.426310 1.440000 116 115 116
-2.461064 -0.426310 1.425397 116 112 113
-2.479264 -0.426310 1.460000 114 113 111
-2.479913 -0.426310 1.480000 113 114 114
-2.461064 -0.410243 1.140000 245 246 241
-2.461064 -0.406310 1.136067 245 246 241
-2.461314 -0.406310 1.240000 100 95 101
-2.461064 -0.406310 1.238830 100 95 101
-2.461064 -0.406310 1.241085 100 95 101
-2.462346 -0.406310 1.300000 101 99 103
-2.461064 -0.419917 1.300000 104 101 106
-2.461064 -0.406310 1.289855 78 77 90
-2.461753 -0.406310 1.320000 103 103 104
-2.463435 -0.406310 1.340000 107 105 108
-2.461064 -0.411120 1.360000 119 117 117
-2.461064 -0.406310 1.352800 119 117 117
-2.461064 -0.418749 1.380000 108 106 108
-2.461064 -0.422873 1.400000 120 117 116
-2.462730 -0.406310 1.440000 110 113 110
-2.461064 -0.406310 1.437332 110 113 110
-2.477928 -0.406310 1.460000 122 119 120
-2.480791 -0.406310 1.480000 130 129 126
-2.461064 -0.402377 1.140000 245 246 241
-2.461064 -0.386310 1.157927 248 249 245
-2.461909 -0.386310 1.220000 111 109 111
-2.461064 -0.390438 1.220000 111 109 111
-2.461064 -0.386310 1.217101 111 109 111
-2.461064 -0.404878 1.240000 100 95 101
-2.461064 -0.386310 1.224881 111 109 111
-2.461513 -0.386310 1.300000 104 102 106
-2.461064 -0.386310 1.293364 104 102 106
-2.461064 -0.403125 1.320000 103 103 104
-2.461064 -0.386310 1.302259 104 102 106
-2.461064 -0.403480 1.340000 107 105 108
-2.461064 -0.402028 1.440000 110 113 110
-2.471525 -0.386310 1.460000 156 153 147
-2.461064 -0.386310 1.447152 141 136 132
-2.461064 -0.366310 1.157973 251 250 251
-2.469453 -0.366310 1.220000 108 104 107
-2.461064 -0.366310 1.206144 142 146 149
-2.461064 -0.366310 1.237545 101 100 103
-2.461064 -0.385810 1.300000 104 102 106
-2.466227 -0.366310 1.460000 172 167 158
-2.461064 -0.366310 1.453762 172 167 158
-2.463465 -0.346310 1.160000 251 250 249
-2.461064 -0.346310 1.157600 251 250 249
-2.461064 -0.350634 1.220000 126 121 128
-2.462067 -0.346310 1.460000 168 167 160
-2.461064 -0.346310 1.458386 168 167 160
-2.477276 -0.346310 1.480000 170 170 164
-2.461064 -0.343910 1.160000 251 250 249
-2.461064 -0.326310 1.178318 251 251 251
-2.461064 -0.342985 1.460000 168 167 160
-2.469486 -0.326310 1.480000 173 174 166
-2.461064 -0.326310 1.467621 171 171 164
-2.461064 -0.306310 1.176715 253 252 253
-2.464805 -0.306310 1.480000 166 164 159
-2.461064 -0.306310 1.474065 166 164 159
-2.478831 -0.306310 1.500000 169 170 163
-2.465969 -0.286310 1.180000 252 252 252
-2.461064 -0.286310 1.175095 252 252 252
-2.465008 -0.286310 1.220000 217 217 216
-2.461064 -0.293006 1.480000 168 167 161
-2.473824 -0.286310 1.500000 167 166 161
-2.461064 -0.286310 1.482696 168 167 161
-2.461064 -0.281406 1.180000 252 252 252
-2.461064 -0.266310 1.193931 251 251 250
-2.467913 -0.266310 1.500000 163 162 157
-2.461064 -0.266310 1.488497 181 181 173
-2.461064 -0.246310 1.196872 253 253 253
-2.462189 -0.246310 1.500000 165 165 159
-2.461064 -0.246310 1.496819 165 165 159
-2.477106 -0.246310 1.520000 163 163 159
-2.461064 -0.226310 1.192299 251 251 251
-2.461064 -0.239307 1.500000 165 165 159
-2.469793 -0.226310 1.520000 163 165 161
-2.461064 -0.226310 1.503622 181 181 172
-2.467681 -0.206310 1.200000 250 250 250
-2.461064 -0.206310 1.193383 250 250 250
-2.464335 -0.206310 1.520000 165 167 161
-2.461064 -0.206310 1.509187 179 179 168
-2.479443 -0.206310 1.540000 160 163 157
-2.461064 -0.199694 1.200000 250 250 250
-2.461064 -0.186310 1.215387 252 252 252
-2.462933 -0.186310 1.520000 177 178 168
-2.461064 -0.186310 1.509824 178 177 168
-2.473520 -0.186310 1.540000 167 170 165
-2.461064 -0.181698 1.220000 252 252 252
-2.461064 -0.166310 1.234939 248 248 248
-2.462385 -0.166310 1.520000 177 174 166
-2.461064 -0.166310 1.518015 177 174 166
-2.466591 -0.166310 1.540000 159 159 155
-2.472591 -0.166310 1.560000 152 154 150
-2.466692 -0.146310 1.240000 249 249 248
