ply
format ascii 1.0
element vertex 1210
property float x
property float y
property float z
property uchar red
property uchar green
property uchar blue
end_header
-0.249563 -0.049654 -0.700002 118 118 118
-0.249563 0.000026 -0.732103 123 123 123
-0.249563 0.000026 0.739228 128 128 128
-0.278185 0.050026 -0.750002 118 118 118
-0.249563 0.035013 -0.750002 121 121 121
-0.249563 0.050026 -0.757543 121 121 121
-0.249563 0.050026 0.748195 129 129 129
-0.249563 0.100026 -0.794869 122 122 122
-0.249563 0.055038 0.749998 129 129 129
-0.249563 0.100026 0.765432 99 99 99
-0.298647 0.150026 -0.800002 108 108 108
-0.249563 0.103844 -0.800002 122 122 122
-0.249563 0.150026 -0.830652 114 114 114
-0.293086 0.150026 0.799998 26 26 26
-0.249563 0.150026 0.782155 71 71 71
-0.287756 0.200026 -0.800002 98 98 98
-0.249563 0.200026 -0.828794 119 119 119
-0.274818 0.200026 -0.100002 159 159 159
-0.249563 0.174609 -0.100002 46 46 46
-0.249563 0.200026 -0.125290 255 255 255
-0.274621 0.200026 -0.050002 255 255 255
-0.249563 0.174714 -0.050002 37 37 37
-0.249563 0.174827 -0.000002 25 25 25
-0.249563 0.174926 0.049998 17 17 17
-0.274679 0.200026 0.099998 147 147 147
-0.249563 0.174925 0.099998 14 14 14
-0.274818 0.200026 0.149998 135 135 135
-0.249563 0.174823 0.149998 40 40 40
-0.249563 0.200026 0.175464 117 117 117
-0.249563 0.175887 0.799998 20 20 20
-0.249563 0.200026 0.816669 20 20 20
-0.249563 0.250026 -0.833550 122 122 122
-0.274784 0.250026 -0.100002 255 255 255
-0.249563 0.250026 -0.125144 255 255 255
-0.274654 0.250026 0.099998 126 126 126
-0.249563 0.225611 0.149998 105 105 105
-0.249563 0.250026 0.125584 105 105 105
-0.249563 0.250026 0.829021 95 95 95
-0.249563 0.300026 -0.844195 110 110 110
-0.274833 0.300026 -0.100002 255 255 255
-0.249563 0.300026 -0.125045 255 255 255
-0.274598 0.300026 0.049998 188 188 188
-0.249563 0.275561 0.099998 130 130 130
-0.249563 0.300026 0.075534 130 130 130
-0.249563 0.300026 0.821290 58 58 58
-0.249563 0.350026 -0.829426 105 105 105
-0.274733 0.350026 -0.100002 255 255 255
-0.249563 0.350026 -0.125034 255 255 255
-0.249563 0.325478 0.049998 160 160 160
-0.249563 0.350026 0.025450 160 160 160
-0.249563 0.350026 0.803278 100 100 100
-0.249563 0.384413 -0.800002 92 92 92
-0.249563 0.400026 -0.794604 92 92 92
-0.274833 0.400026 -0.100002 245 245 245
-0.249563 0.400026 -0.125045 242 242 242
-0.249563 0.375361 -0.000002 172 172 172
-0.249563 0.400026 -0.024667 172 172 172
-0.249563 0.390572 0.799998 109 109 109
-0.249563 0.400026 0.799256 109 109 109
-0.249563 0.450026 -0.789218 79 79 79
-0.249563 0.425456 -0.100002 74 74 74
-0.249563 0.425553 -0.050002 129 129 129
-0.249563 0.450026 0.794999 112 112 112
-0.298051 0.500026 -0.750002 64 64 64
-0.249563 0.500026 -0.760400 62 62 62
-0.249563 0.500026 0.791897 103 103 103
-0.249563 0.526359 -0.750002 49 49 49
-0.249563 0.550026 -0.736800 49 49 49
-0.249563 0.550026 0.794357 106 106 106
-0.293088 0.600026 -0.700002 39 39 39
-0.249563 0.600026 -0.712077 40 40 40
-0.249563 0.600026 0.789621 123 123 123
-0.297549 0.650026 -0.700002 35 35 35
-0.249563 0.650026 -0.712555 37 37 37
-0.249563 0.650026 0.766428 117 117 117
-0.249563 0.668422 -0.700002 37 37 37
-0.249563 0.695321 -0.650002 33 33 33
-0.249563 0.700026 -0.646081 33 33 33
-0.284966 0.700026 0.699998 100 100 100
-0.249563 0.665100 0.749998 117 117 117
-0.249563 0.700026 0.710992 83 83 83
-0.249563 0.748607 -0.600002 29 29 29
-0.249563 0.750026 -0.598935 29 29 29
-0.249563 0.748084 0.399998 114 114 114
-0.249563 0.750026 0.389852 114 114 114
-0.249563 0.741266 0.449998 107 107 107
-0.249563 0.731999 0.499998 96 96 96
-0.249563 0.724005 0.549998 90 90 90
-0.249563 0.714848 0.599998 82 82 82
-0.249563 0.705918 0.649998 84 84 84
-0.249563 0.701478 0.699998 83 83 83
-0.249563 0.799797 -0.550002 24 24 24
-0.249563 0.800026 -0.549683 24 24 24
-0.254879 0.800026 0.299998 115 115 115
-0.249563 0.777545 0.349998 113 113 113
-0.249563 0.800026 0.302399 115 115 115
-0.249563 0.838449 -0.500002 24 24 24
-0.249563 0.850026 -0.483772 24 24 24
-0.249563 0.836866 0.249998 100 100 100
-0.249563 0.850026 0.229790 100 100 100
-0.249563 0.801157 0.299998 115 115 115
-0.249563 0.888745 -0.450002 31 31 31
-0.249563 0.900026 -0.443963 31 31 31
-0.273155 0.900026 0.149998 71 71 71
-0.249563 0.886993 0.149998 71 71 71
-0.249563 0.900026 0.105606 69 69 69
-0.287385 0.900026 0.199998 84 84 84
-0.249563 0.900026 0.175007 76 76 76
-0.249563 0.900026 0.230953 81 81 81
-0.267928 0.950026 -0.400002 32 32 32
-0.249563 0.933078 -0.400002 32 32 32
-0.249563 0.950026 -0.395710 32 32 32
-0.274251 0.950026 0.049998 83 83 83
-0.249563 0.907030 0.099998 69 69 69
-0.249563 0.950026 0.070828 83 83 83
-0.249563 0.910946 0.199998 76 76 76
-0.249563 0.985287 -0.350002 31 31 31
-0.249563 0.988023 -0.300002 46 46 46
-0.249563 0.983090 -0.250002 52 52 52
-0.249563 0.971511 -0.200002 66 66 66
-0.249563 0.969749 -0.150002 74 74 74
-0.249563 0.969288 -0.100002 73 73 73
-0.249563 0.967783 -0.050002 74 74 74
-0.249563 0.958325 -0.000002 81 81 81
-0.249563 0.954797 0.049998 83 83 83
-0.208155 -0.999974 0.099998 73 73 73
-0.239075 -0.999974 0.149998 54 54 54
-0.199563 -1.023737 0.149998 42 42 42
-0.199563 -0.999974 0.109239 73 73 73
-0.199563 -0.999974 0.198955 73 73 73
-0.226080 -0.999974 0.499998 96 96 96
-0.199563 -1.003737 0.499998 117 117 117
-0.199563 -0.999974 0.492731 117 117 117
-0.199563 -1.014261 0.549998 100 100 100
-0.199563 -0.999974 0.586824 89 89 89
-0.199563 -0.949974 0.148019 88 88 88
-0.199563 -0.998972 0.199998 73 73 73
-0.199563 -0.991051 0.249998 90 90 90
-0.199563 -0.986670 0.299998 108 108 108
-0.199563 -0.987621 0.349998 116 116 116
-0.199563 -0.986470 0.399998 122 122 122
-0.199563 -0.986689 0.449998 119 119 119
-0.199563 -0.992000 0.599998 89 89 89
-0.199563 -0.983306 0.649998 105 105 105
-0.238095 -0.949974 0.699998 128 128 128
-0.199563 -0.965591 0.699998 133 133 133
-0.199857 -0.949974 0.749998 137 137 137
-0.199563 -0.950070 0.749998 137 137 137
-0.199563 -0.949974 0.750463 137 137 137
-0.241696 -0.899974 0.149998 93 93 93
-0.199563 -0.946056 0.149998 88 88 88
-0.199563 -0.899974 0.162716 101 101 101
-0.216085 -0.899974 0.649998 106 106 106
-0.199563 -0.933021 0.699998 133 133 133
-0.199563 -0.899974 0.660588 106 106 106
-0.199563 -0.949885 0.749998 137 137 137
-0.199563 -0.849974 0.163941 100 100 100
-0.199563 -0.849974 0.694741 133 133 133
-0.199563 -0.799974 0.185316 108 108 108
-0.215149 -0.799974 0.699998 136 136 136
-0.199563 -0.834244 0.699998 133 133 133
-0.199563 -0.799974 0.710623 136 136 136
-0.199563 -0.749974 0.191667 102 102 102
-0.233049 -0.749974 0.699998 119 119 119
-0.199563 -0.749974 0.724805 139 139 139
-0.199563 -0.699974 0.190270 95 95 95
-0.238500 -0.699974 0.699998 130 130 130
-0.199563 -0.699974 0.730859 146 146 146
-0.200740 -0.649974 0.199998 80 80 80
-0.199563 -0.657408 0.199998 80 80 80
-0.199563 -0.649974 0.201187 80 80 80
-0.240157 -0.649974 0.699998 125 125 125
-0.199563 -0.649974 0.736323 144 144 144
-0.200575 -0.599974 0.199998 72 72 72
-0.199563 -0.599974 0.201017 72 72 72
-0.240974 -0.599974 0.699998 118 118 118
-0.199563 -0.599974 0.736181 142 142 142
-0.199563 -0.583229 0.199998 72 72 72
-0.199563 -0.549974 0.195299 72 72 72
-0.236953 -0.549974 0.699998 116 116 116
-0.199563 -0.549974 0.737757 139 139 139
-0.241463 -0.499974 0.149998 77 77 77
-0.199563 -0.499974 0.188261 71 71 71
-0.233878 -0.499974 0.699998 109 109 109
-0.199563 -0.499974 0.733023 136 136 136
-0.218579 -0.449974 0.149998 64 64 64
-0.199563 -0.449974 0.163322 64 64 64
-0.215523 -0.449974 0.699998 136 136 136
-0.199563 -0.449974 0.717527 136 136 136
-0.199563 -0.406599 -0.150002 50 50 50
-0.199563 -0.399974 -0.164716 50 50 50
-0.199563 -0.404016 -0.100002 61 61 61
-0.199563 -0.406128 -0.050002 73 73 73
-0.199563 -0.407879 -0.000002 68 68 68
-0.199563 -0.411373 0.049998 57 57 57
-0.199563 -0.417053 0.099998 58 58 58
-0.199563 -0.431647 0.149998 64 64 64
-0.240045 -0.399974 0.649998 96 96 96
-0.203606 -0.399974 0.699998 130 130 130
-0.199563 -0.399974 0.704824 130 130 130
-0.247083 -0.349974 -0.200002 78 78 78
-0.199563 -0.349974 -0.183077 87 87 87
-0.248118 -0.349974 0.599998 103 103 103
-0.217682 -0.349974 0.649998 141 141 141
-0.199563 -0.381505 0.699998 130 130 130
-0.199563 -0.349974 0.691072 120 120 120
-0.233263 -0.299974 -0.300002 100 100 100
-0.199563 -0.316397 -0.300002 114 114 114
-0.199563 -0.299974 -0.331783 111 111 111
-0.199563 -0.333515 -0.250002 94 94 94
-0.199563 -0.345105 -0.200002 87 87 87
-0.245010 -0.299974 0.349998 37 37 37
-0.229565 -0.299974 0.599998 91 91 91
-0.211151 -0.299974 0.649998 126 126 126
-0.199563 -0.299974 0.672779 126 126 126
-0.231013 -0.249974 -0.400002 106 106 106
-0.199563 -0.266911 -0.400002 112 112 112
-0.199563 -0.249974 -0.424181 112 112 112
-0.199563 -0.287785 -0.350002 111 111 111
-0.235417 -0.249974 0.499998 72 72 72
-0.222933 -0.249974 0.549998 116 116 116
-0.210721 -0.249974 0.599998 121 121 121
-0.199563 -0.261026 0.649998 115 115 115
-0.199563 -0.249974 0.642891 115 115 115
-0.201463 -0.199974 -0.500002 125 125 125
-0.199563 -0.200790 -0.500002 125 125 125
-0.199563 -0.199974 -0.501312 125 125 125
-0.199563 -0.228580 -0.450002 117 117 117
-0.230242 -0.199974 0.549998 99 99 99
-0.208677 -0.199974 0.599998 98 98 98
-0.199563 -0.199974 0.618620 98 98 98
-0.199563 -0.164540 -0.550002 110 110 110
-0.199563 -0.149974 -0.572497 110 110 110
-0.211566 -0.149974 0.649998 91 91 91
-0.199563 -0.165043 0.649998 91 91 91
-0.199563 -0.149974 0.663320 91 91 91
-0.221710 -0.099974 -0.650002 115 115 115
-0.199563 -0.109556 -0.650002 115 115 115
-0.199563 -0.099974 -0.662337 115 115 115
-0.199563 -0.135362 -0.600002 119 119 119
-0.241784 -0.099974 0.699998 83 83 83
-0.199563 -0.116287 0.699998 105 105 105
-0.199563 -0.099974 0.713858 105 105 105
-0.248688 -0.049974 -0.700002 118 118 118
-0.199563 -0.060519 -0.700002 120 120 120
-0.199563 -0.049974 -0.712719 120 120 120
-0.199563 -0.049974 0.734576 121 121 121
-0.199563 0.000026 -0.749444 127 127 127
-0.214515 0.000026 0.749998 137 137 137
-0.199563 -0.011054 0.749998 137 137 137
-0.199563 0.000026 0.754302 137 137 137
-0.199563 0.000803 -0.750002 127 127 127
-0.199563 0.050026 -0.779530 127 127 127
-0.242357 0.050026 0.749998 129 129 129
-0.199563 0.050026 0.759495 132 132 132
-0.237306 0.100026 -0.800002 122 122 122
-0.199563 0.086288 -0.800002 125 125 125
-0.199563 0.100026 -0.806026 125 125 125
-0.199563 0.100026 0.770310 121 121 121
-0.199563 0.150026 -0.822297 113 113 113
-0.224875 0.150026 -0.050002 37 37 37
-0.199563 0.124246 -0.050002 57 57 57
-0.199563 0.150026 -0.075103 88 88 88
-0.224762 0.150026 -0.000002 25 25 25
-0.199563 0.124340 -0.000002 48 48 48
-0.224662 0.150026 0.049998 17 17 17
-0.199563 0.124434 0.049998 31 31 31
-0.224663 0.150026 0.099998 14 14 14
-0.199563 0.124648 0.099998 24 24 24
-0.224766 0.150026 0.149998 40 40 40
-0.199563 0.124625 0.149998 14 14 14
-0.199563 0.150026 0.175012 156 156 156
-0.199563 0.150026 0.785998 109 109 109
-0.199563 0.200026 -0.844631 115 115 115
-0.224851 0.200026 -0.150002 255 255 255
-0.199563 0.174671 -0.150002 97 97 97
-0.199563 0.200026 -0.175324 255 255 255
-0.199563 0.174925 -0.100002 88 88 88
-0.199563 0.200026 0.175389 48 48 48
-0.211403 0.200026 0.799998 73 73 73
-0.199563 0.200026 0.794598 73 73 73
-0.199563 0.250026 -0.842344 111 111 111
-0.224705 0.250026 -0.150002 255 255 255
-0.199563 0.250026 -0.175125 255 255 255
-0.199563 0.225399 0.149998 83 83 83
-0.199563 0.250026 0.125372 83 83 83
-0.201770 0.250026 0.799998 84 84 84
-0.199563 0.250026 0.798626 84 84 84
-0.199563 0.300026 -0.843664 109 109 109
-0.224607 0.300026 -0.150002 255 255 255
-0.199563 0.300026 -0.175085 249 249 249
-0.199563 0.275431 0.099998 114 114 114
-0.199563 0.300026 0.075403 114 114 114
-0.202886 0.300026 0.799998 94 94 94
-0.199563 0.300026 0.798420 94 94 94
-0.223816 0.350026 -0.850002 110 110 110
-0.199563 0.317418 -0.850002 109 109 109
-0.199563 0.350026 -0.855602 110 110 110
-0.224595 0.350026 -0.150002 255 255 255
-0.199563 0.350026 -0.175085 248 248 248
-0.199563 0.325303 0.049998 142 142 142
-0.199563 0.350026 0.025276 142 142 142
-0.199563 0.314982 0.799998 94 94 94
-0.199563 0.350026 0.803982 107 107 107
-0.199563 0.366054 -0.850002 110 110 110
-0.234788 0.400026 -0.800002 92 92 92
-0.199563 0.400026 -0.821838 95 95 95
-0.224607 0.400026 -0.150002 242 242 242
-0.199563 0.400026 -0.175059 124 124 124
-0.199563 0.375232 -0.000002 168 168 168
-0.199563 0.400026 -0.024795 168 168 168
-0.240387 0.400026 0.799998 109 109 109
-0.199563 0.400026 0.803166 112 112 112
-0.207803 0.450026 -0.800002 85 85 85
-0.199563 0.450026 -0.803723 85 85 85
-0.199563 0.425444 -0.150002 43 43 43
-0.199563 0.425338 -0.100002 71 71 71
-0.199563 0.425399 -0.050002 119 119 119
-0.222424 0.450026 0.799998 105 105 105
-0.199563 0.450026 0.804278 105 105 105
-0.199563 0.453100 -0.800002 85 85 85
-0.199563 0.500026 -0.774571 70 70 70
-0.217643 0.500026 0.799998 101 101 101
-0.199563 0.500026 0.805286 101 101 101
-0.224764 0.550026 -0.750002 49 49 49
-0.199563 0.550026 -0.759596 51 51 51
-0.220722 0.550026 0.799998 113 113 113
-0.199563 0.550026 0.803723 113 113 113
-0.199563 0.575616 -0.750002 45 45 45
-0.199563 0.600026 -0.731163 45 45 45
-0.199563 0.568629 0.799998 113 113 113
-0.199563 0.600026 0.792462 115 115 115
-0.199563 0.650026 -0.709486 41 41 41
-0.199563 0.650026 0.758911 98 98 98
-0.212245 0.700026 -0.700002 35 35 35
-0.199563 0.700026 -0.708291 35 35 35
-0.241343 0.700026 -0.650002 33 33 33
-0.225303 0.700026 0.599998 82 82 82
-0.199563 0.679648 0.599998 78 78 78
-0.199563 0.700026 0.577131 78 78 78
-0.240434 0.700026 0.649998 84 84 84
-0.199563 0.669525 0.649998 77 77 77
-0.247399 0.700026 0.699998 83 83 83
-0.199563 0.660919 0.699998 79 79 79
-0.199563 0.651667 0.749998 98 98 98
-0.199563 0.705140 -0.700002 35 35 35
-0.199563 0.721049 -0.650002 39 39 39
-0.245742 0.750026 -0.600002 29 29 29
-0.199563 0.750026 -0.618601 32 32 32
-0.217933 0.750026 0.399998 114 114 114
-0.199563 0.742231 0.449998 107 107 107
-0.199563 0.750026 0.407262 114 114 114
-0.199563 0.732716 0.499998 97 97 97
-0.199563 0.723185 0.549998 76 76 76
-0.199563 0.766812 -0.600002 32 32 32
-0.199563 0.799685 -0.550002 24 24 24
-0.199563 0.800026 -0.549661 24 24 24
-0.199563 0.782385 0.349998 109 109 109
-0.199563 0.800026 0.321488 114 114 114
-0.199563 0.754388 0.399998 114 114 114
-0.224009 0.850026 -0.500002 25 25 25
-0.199563 0.850026 -0.510545 25 25 25
-0.199563 0.847975 0.249998 99 99 99
-0.199563 0.850026 0.247513 99 99 99
-0.199563 0.812012 0.299998 114 114 114
-0.199563 0.862480 -0.500002 25 25 25
-0.236893 0.900026 -0.450002 31 31 31
-0.199563 0.900026 -0.469124 29 29 29
-0.199563 0.899763 0.149998 65 65 65
-0.199563 0.900026 0.149426 65 65 65
-0.234224 0.900026 0.199998 76 76 76
-0.199563 0.873472 0.199998 101 101 101
-0.199563 0.916729 -0.450002 29 29 29
-0.203619 0.950026 -0.400002 30 30 30
-0.199563 0.950026 -0.402658 30 30 30
-0.216449 0.950026 0.099998 86 86 86
-0.199563 0.950026 0.121235 86 86 86
-0.199563 0.950902 -0.400002 30 30 30
-0.199563 0.988249 -0.350002 28 28 28
-0.199563 0.986167 -0.300002 35 35 35
-0.199563 0.992468 -0.250002 45 45 45
-0.199563 0.987682 -0.200002 54 54 54
-0.199563 0.976151 -0.150002 58 58 58
-0.199563 0.982299 -0.100002 66 66 66
-0.199563 0.973851 -0.050002 72 72 72
-0.199563 0.971341 -0.000002 76 76 76
-0.199563 0.961240 0.049998 77 77 77
-0.199563 0.954009 0.099998 86 86 86
-0.149563 -1.023086 0.149998 50 50 50
-0.149563 -0.999974 0.121786 91 91 91
-0.198414 -0.999974 0.199998 73 73 73
-0.149563 -1.023450 0.199998 43 43 43
-0.189187 -0.999974 0.249998 90 90 90
-0.149563 -1.025567 0.249998 107 107 107
-0.149563 -0.999974 0.288524 109 109 109
-0.149563 -1.003296 0.499998 126 126 126
-0.149563 -0.999974 0.489654 126 126 126
-0.149563 -1.016740 0.549998 106 106 106
-0.184780 -0.999974 0.599998 89 89 89
-0.149563 -1.013582 0.599998 91 91 91
-0.149563 -0.999974 0.638082 96 96 96
-0.195878 -0.949974 0.149998 88 88 88
-0.149563 -0.962923 0.149998 95 95 95
-0.149563 -0.949974 0.162826 95 95 95
-0.149563 -0.989159 0.299998 109 109 109
-0.149563 -0.986852 0.349998 116 116 116
-0.149563 -0.990747 0.399998 123 123 123
-0.149563 -0.991922 0.449998 126 126 126
-0.149563 -0.993636 0.649998 96 96 96
-0.149563 -0.977490 0.699998 113 113 113
-0.198684 -0.949974 0.749998 137 137 137
-0.149563 -0.949974 0.738948 135 135 135
-0.149563 -0.899974 0.163485 116 116 116
-0.149563 -0.920982 0.699998 87 87 87
-0.149563 -0.899974 0.677835 87 87 87
-0.149852 -0.849974 0.199998 114 114 114
-0.149563 -0.850257 0.199998 114 114 114
-0.149563 -0.849974 0.200300 114 114 114
-0.185190 -0.849974 0.699998 133 133 133
-0.149563 -0.866313 0.699998 130 130 130
-0.149563 -0.849974 0.712651 130 130 130
-0.168872 -0.799974 0.199998 112 112 112
-0.149563 -0.799974 0.207019 112 112 112
-0.149563 -0.799974 0.732775 139 139 139
-0.181835 -0.749974 0.199998 102 102 102
-0.149563 -0.749974 0.208818 103 103 103
-0.149563 -0.749974 0.746004 140 140 140
-0.182646 -0.699974 0.199998 95 95 95
-0.149563 -0.699974 0.210553 96 96 96
-0.159368 -0.699974 0.749998 146 146 146
-0.149563 -0.728822 0.749998 140 140 140
-0.149563 -0.699974 0.755242 146 146 146
-0.149563 -0.649974 0.208046 94 94 94
-0.165559 -0.649974 0.749998 147 147 147
-0.149563 -0.649974 0.757320 147 147 147
-0.149563 -0.599974 0.207593 87 87 87
-0.169680 -0.599974 0.749998 147 147 147
-0.149563 -0.599974 0.761307 147 147 147
-0.184775 -0.549974 0.199998 72 72 72
-0.149563 -0.549974 0.204142 79 79 79
-0.173584 -0.549974 0.749998 147 147 147
-0.149563 -0.549974 0.760674 147 147 147
-0.164142 -0.499974 0.199998 65 65 65
-0.149563 -0.499974 0.201425 65 65 65
-0.156302 -0.499974 0.749998 148 148 148
-0.149563 -0.499974 0.752851 148 148 148
-0.149563 -0.490568 0.199998 65 65 65
-0.149563 -0.449974 0.172439 59 59 59
-0.149563 -0.487459 0.749998 148 148 148
-0.149563 -0.449974 0.741774 149 149 149
-0.149563 -0.403307 -0.150002 72 72 72
-0.149563 -0.399974 -0.159449 72 72 72
-0.149563 -0.413207 -0.100002 68 68 68
-0.149563 -0.409608 -0.050002 91 91 91
-0.149563 -0.411799 -0.000002 89 89 89
-0.149563 -0.415493 0.049998 81 81 81
-0.149563 -0.425123 0.099998 66 66 66
-0.149563 -0.438057 0.149998 59 59 59
-0.149563 -0.399974 0.736691 151 151 151
-0.150766 -0.349974 -0.250002 101 101 101
-0.149563 -0.350478 -0.250002 101 101 101
-0.149563 -0.349974 -0.251032 101 101 101
-0.189224 -0.349974 -0.200002 87 87 87
-0.149563 -0.373162 -0.200002 101 101 101
-0.189732 -0.349974 0.699998 120 120 120
-0.149563 -0.349974 0.734140 148 148 148
-0.176594 -0.299974 -0.350002 111 111 111
-0.149563 -0.311992 -0.350002 114 114 114
-0.149563 -0.299974 -0.371669 114 114 114
-0.149563 -0.330951 -0.300002 105 105 105
-0.172295 -0.299974 0.699998 139 139 139
-0.149563 -0.299974 0.719208 139 139 139
-0.160759 -0.249974 -0.450002 132 132 132
-0.149563 -0.256393 -0.450002 132 132 132
-0.149563 -0.249974 -0.458507 132 132 132
-0.149563 -0.280818 -0.400002 114 114 114
-0.194576 -0.249974 0.649998 115 115 115
-0.159299 -0.249974 0.699998 140 140 140
-0.149563 -0.249974 0.711162 140 140 140
-0.149563 -0.220093 -0.500002 138 138 138
-0.149563 -0.199974 -0.522690 138 138 138
-0.180307 -0.199974 0.649998 100 100 100
-0.152660 -0.199974 0.699998 138 138 138
-0.149563 -0.199974 0.704226 138 138 138
-0.149563 -0.176257 -0.550002 143 143 143
-0.149563 -0.149974 -0.589136 117 117 117
-0.157172 -0.149974 0.699998 123 123 123
-0.149563 -0.149974 0.706601 123 123 123
-0.149563 -0.117620 -0.650002 120 120 120
-0.149563 -0.099974 -0.684948 121 121 121
-0.149563 -0.142851 -0.600002 117 117 117
-0.149563 -0.099974 0.738268 113 113 113
-0.149563 -0.086421 -0.700002 121 121 121
-0.149563 -0.049974 -0.738771 137 137 137
-0.166406 -0.049974 0.749998 127 127 127
-0.149563 -0.071893 0.749998 127 127 127
-0.149563 -0.049974 0.757373 127 127 127
-0.198684 0.000026 -0.750002 127 127 127
-0.149563 -0.036262 -0.750002 137 137 137
-0.149563 0.000026 -0.765539 138 138 138
-0.149563 0.000026 0.763490 134 134 134
-0.149563 0.050026 -0.778317 140 140 140
-0.149563 0.050026 0.769171 128 128 128
-0.149563 0.080702 -0.800002 129 129 129
-0.149563 0.100026 -0.822002 129 129 129
-0.174759 0.100026 0.199998 83 83 83
-0.149563 0.074219 0.199998 47 47 47
-0.149563 0.100026 0.174936 58 58 58
-0.149563 0.100026 0.225469 166 166 166
-0.149563 0.100026 0.778280 118 118 118
-0.149563 0.150026 -0.847652 121 121 121
-0.174664 0.150026 -0.100002 88 88 88
-0.149563 0.124320 -0.100002 96 96 96
-0.149563 0.150026 -0.125154 114 114 114
-0.149563 0.124395 -0.050002 81 81 81
-0.149563 0.124600 -0.000002 71 71 71
-0.149563 0.124759 0.049998 65 65 65
-0.149563 0.124860 0.099998 61 61 61
-0.149563 0.124964 0.149998 58 58 58
-0.174577 0.150026 0.199998 156 156 156
-0.149563 0.150026 0.225424 125 125 125
-0.149563 0.150026 0.788359 104 104 104
-0.180234 0.200026 -0.850002 115 115 115
-0.149563 0.160334 -0.850002 121 121 121
-0.149563 0.200026 -0.855947 118 118 118
-0.174885 0.200026 -0.200002 255 255 255
-0.149563 0.174563 -0.200002 134 134 134
-0.149563 0.200026 -0.225305 179 179 179
-0.149563 0.174873 -0.150002 114 114 114
-0.149563 0.175307 0.199998 10 10 10
-0.149563 0.200026 0.175280 10 10 10
-0.149563 0.200026 0.798857 109 109 109
-0.177104 0.250026 -0.850002 111 111 111
-0.149563 0.250026 -0.855928 121 121 121
-0.174687 0.250026 -0.200002 255 255 255
-0.149563 0.250026 -0.225347 231 231 231
-0.149563 0.225294 0.149998 56 56 56
-0.149563 0.250026 0.125267 56 56 56
-0.190062 0.250026 0.799998 84 84 84
-0.149563 0.208101 0.799998 109 109 109
-0.149563 0.250026 0.807054 114 114 114
-0.187332 0.300026 -0.850002 109 109 109
-0.149563 0.300026 -0.862679 120 120 120
-0.174646 0.300026 -0.200002 249 249 249
-0.149563 0.300026 -0.225332 250 250 250
-0.149563 0.275211 0.099998 115 115 115
-0.149563 0.300026 0.075183 115 115 115
-0.193095 0.300026 0.799998 94 94 94
-0.149563 0.300026 0.811847 113 113 113
-0.149563 0.350026 -0.857742 113 113 113
-0.174646 0.350026 -0.200002 248 248 248
-0.149563 0.350026 -0.225251 202 202 202
-0.149563 0.325128 0.049998 179 179 179
-0.149563 0.350026 0.025100 179 179 179
-0.149563 0.350026 0.812607 115 115 115
-0.152344 0.400026 -0.850002 100 100 100
-0.149563 0.400026 -0.850838 100 100 100
-0.174621 0.400026 -0.200002 124 124 124
-0.149563 0.400026 -0.225427 82 82 82
-0.149563 0.375119 -0.000002 171 171 171
-0.149563 0.400026 -0.024909 171 171 171
-0.149563 0.400026 0.814761 104 104 104
-0.149563 0.402096 -0.850002 100 100 100
-0.149563 0.450026 -0.822558 77 77 77
-0.149563 0.425642 -0.200002 26 26 26
-0.149563 0.425384 -0.150002 41 41 41
-0.149563 0.425265 -0.100002 65 65 65
-0.149563 0.425349 -0.050002 118 118 118
-0.149563 0.450026 0.818499 103 103 103
-0.149563 0.497358 -0.800002 76 76 76
-0.149563 0.500026 -0.798292 76 76 76
-0.149563 0.500026 0.814326 107 107 107
-0.149563 0.550026 -0.754868 57 57 57
-0.149563 0.550026 0.805315 98 98 98
-0.156083 0.600026 -0.750002 44 44 44
-0.149563 0.600026 -0.751306 44 44 44
-0.149563 0.559123 0.799998 98 98 98
-0.149563 0.600026 0.773338 68 68 68
-0.149563 0.623566 -0.750002 44 44 44
-0.149563 0.650026 -0.746802 45 45 45
-0.149851 0.650026 0.549998 84 84 84
-0.149563 0.649760 0.549998 84 84 84
-0.149563 0.650026 0.548883 84 84 84
-0.162354 0.650026 0.599998 80 80 80
-0.149563 0.638188 0.599998 80 80 80
-0.172900 0.650026 0.649998 74 74 74
-0.149563 0.628485 0.649998 74 74 74
-0.185718 0.650026 0.699998 79 79 79
-0.149563 0.616510 0.699998 70 70 70
-0.197464 0.650026 0.749998 98 98 98
-0.149563 0.605645 0.749998 68 68 68
-0.169619 0.700026 -0.700002 33 33 33
-0.149563 0.691061 -0.700002 33 33 33
-0.149563 0.700026 -0.690497 33 33 33
-0.154447 0.700026 0.499998 99 99 99
-0.149563 0.686053 0.499998 99 99 99
-0.149563 0.700026 0.479950 99 99 99
-0.166775 0.700026 0.549998 88 88 88
-0.149563 0.724749 -0.650002 38 38 38
-0.149563 0.750026 -0.623662 34 34 34
-0.149563 0.717733 0.449998 113 113 113
-0.149563 0.750026 0.401548 113 113 113
-0.149563 0.778138 -0.600002 27 27 27
-0.198882 0.800026 -0.550002 24 24 24
-0.149563 0.800026 -0.580195 27 27 27
-0.149563 0.786858 0.349998 110 110 110
-0.149563 0.800026 0.332826 110 110 110
-0.149563 0.751312 0.399998 113 113 113
-0.149563 0.825690 -0.550002 22 22 22
-0.149563 0.850026 -0.514586 24 24 24
-0.190623 0.850026 0.249998 99 99 99
-0.149563 0.822311 0.299998 113 113 113
-0.149563 0.850026 0.264423 99 99 99
-0.149563 0.872894 -0.500002 24 24 24
-0.149563 0.900026 -0.480368 22 22 22
-0.198199 0.900026 0.149998 65 65 65
-0.149563 0.883283 0.199998 74 74 74
-0.149563 0.900026 0.167685 73 73 73
-0.187942 0.900026 0.249998 72 72 72
-0.149563 0.900026 0.235604 82 82 82
-0.149563 0.900026 0.272164 82 82 82
-0.149563 0.917105 -0.450002 27 27 27
-0.180405 0.950026 -0.400002 30 30 30
-0.149563 0.943751 -0.400002 31 31 31
-0.149563 0.950026 -0.397899 31 31 31
-0.149563 0.946588 0.149998 98 98 98
-0.149563 0.950026 0.147939 98 98 98
-0.149563 0.906892 0.249998 82 82 82
-0.149563 0.974411 -0.350002 48 48 48
-0.149563 0.989516 -0.300002 37 37 37
-0.149563 0.995049 -0.250002 48 48 48
-0.149563 0.993381 -0.200002 57 57 57
-0.149563 0.985202 -0.150002 63 63 63
-0.149563 0.985588 -0.100002 64 64 64
-0.149563 0.980162 -0.050002 72 72 72
-0.149563 0.973607 -0.000002 75 75 75
-0.149563 0.968851 0.049998 81 81 81
-0.149563 0.960258 0.099998 92 92 92
-0.099563 -1.025210 0.149998 120 120 120
-0.099563 -0.999974 0.125327 57 57 57
-0.099563 -1.024098 0.199998 49 49 49
-0.099563 -1.027779 0.249998 123 123 123
-0.136507 -0.999974 0.299998 109 109 109
-0.099563 -1.028000 0.299998 124 124 124
-0.099563 -0.999974 0.341697 121 121 121
-0.110928 -0.999974 0.449998 132 132 132
-0.099563 -1.003068 0.449998 132 132 132
-0.099563 -0.999974 0.440302 132 132 132
-0.099563 -1.002615 0.499998 131 131 131
-0.099563 -1.025845 0.549998 109 109 109
-0.099563 -1.007086 0.599998 89 89 89
-0.099563 -0.999974 0.626902 88 88 88
-0.099563 -0.966050 0.149998 117 117 117
-0.099563 -0.949974 0.166004 117 117 117
-0.099563 -0.992577 0.349998 121 121 121
-0.099563 -0.992941 0.399998 133 133 133
-0.099563 -0.989368 0.649998 88 88 88
-0.099563 -0.973747 0.699998 108 108 108
-0.114900 -0.949974 0.749998 118 118 118
-0.099563 -0.953455 0.749998 118 118 118
-0.099563 -0.949974 0.771717 118 118 118
-0.099563 -0.899974 0.192198 120 120 120
-0.099563 -0.911069 0.699998 81 81 81
-0.099563 -0.899974 0.689733 81 81 81
-0.099563 -0.946697 0.749998 118 118 118
-0.135324 -0.849974 0.199998 114 114 114
-0.099563 -0.849974 0.198369 113 113 113
-0.099563 -0.885015 0.699998 81 81 81
-0.099563 -0.849974 0.725956 120 120 120
-0.099563 -0.847928 0.199998 113 113 113
-0.099563 -0.799974 0.212873 127 127 127
-0.099563 -0.799974 0.743549 125 125 125
-0.099563 -0.749974 0.211899 118 118 118
-0.134196 -0.749974 0.749998 140 140 140
-0.099563 -0.778711 0.749998 125 125 125
-0.099563 -0.749974 0.758745 129 129 129
-0.099563 -0.699974 0.212374 119 119 119
-0.099563 -0.699974 0.766308 143 143 143
-0.099563 -0.649974 0.210514 115 115 115
-0.099563 -0.649974 0.775045 146 146 146
-0.099563 -0.599974 0.209023 114 114 114
-0.099563 -0.599974 0.777733 145 145 145
-0.099563 -0.549974 0.204405 112 112 112
-0.099563 -0.549974 0.776201 146 146 146
-0.099563 -0.499974 0.204366 108 108 108
-0.099563 -0.499974 0.769513 147 147 147
-0.099563 -0.459148 0.199998 94 94 94
-0.099563 -0.449974 0.186590 94 94 94
-0.129166 -0.449974 0.749998 149 149 149
-0.099563 -0.449974 0.762074 153 153 153
-0.102223 -0.399974 -0.150002 98 98 98
-0.099563 -0.412781 -0.100002 100 100 100
-0.099563 -0.399974 -0.149385 98 98 98
-0.099563 -0.416496 -0.050002 103 103 103
-0.099563 -0.418457 -0.000002 104 104 104
-0.099563 -0.421171 0.049998 109 109 109
-0.099563 -0.430918 0.099998 103 103 103
-0.099563 -0.442005 0.149998 91 91 91
-0.118631 -0.399974 0.749998 160 160 160
-0.099563 -0.399974 0.757470 160 160 160
-0.099563 -0.366617 -0.250002 117 117 117
-0.099563 -0.349974 -0.292802 122 122 122
-0.099563 -0.384166 -0.200002 106 106 106
-0.099563 -0.399686 -0.150002 98 98 98
-0.107500 -0.349974 0.749998 161 161 161
-0.099563 -0.349974 0.752596 161 161 161
-0.099563 -0.325308 -0.350002 126 126 126
-0.099563 -0.299974 -0.391059 135 135 135
-0.099563 -0.346378 -0.300002 122 122 122
-0.099563 -0.326004 0.749998 161 161 161
-0.099563 -0.299974 0.746649 137 137 137
-0.099563 -0.266787 -0.450002 138 138 138
-0.099563 -0.249974 -0.474267 138 138 138
-0.099563 -0.293672 -0.400002 135 135 135
-0.112172 -0.249974 0.749998 85 85 85
-0.099563 -0.290539 0.749998 137 137 137
-0.099563 -0.249974 0.763384 85 85 85
-0.099563 -0.230727 -0.500002 140 140 140
-0.099563 -0.199974 -0.539653 137 137 137
-0.113695 -0.199974 0.749998 128 128 128
-0.099563 -0.199974 0.775637 147 147 147
-0.121990 -0.149974 -0.600002 117 117 117
-0.099563 -0.156426 -0.600002 117 117 117
-0.099563 -0.149974 -0.606250 117 117 117
-0.099563 -0.191291 -0.550002 137 137 137
-0.099563 -0.169496 0.749998 125 125 125
-0.099563 -0.149974 0.733708 125 125 125
-0.099563 -0.116243 -0.650002 120 120 120
-0.099563 -0.099974 -0.684646 120 120 120
-0.117932 -0.099974 0.749998 116 116 116
-0.099563 -0.116209 0.749998 116 116 116
-0.099563 -0.099974 0.756160 116 116 116
-0.117466 -0.049974 -0.750002 137 137 137
-0.099563 -0.054107 -0.750002 137 137 137
-0.099563 -0.049974 -0.753971 137 137 137
-0.099563 -0.089421 -0.700002 120 120 120
-0.099563 -0.049974 0.765162 117 117 117
-0.099563 0.000026 -0.780770 142 142 142
-0.099563 0.000026 0.772974 129 129 129
-0.100409 0.050026 -0.800002 133 133 133
-0.099563 0.048821 -0.800002 133 133 133
-0.099563 0.050026 -0.800388 133 133 133
-0.099563 0.050026 0.778724 117 117 117
-0.099563 0.100026 -0.813046 132 132 132
-0.124729 0.100026 0.099998 61 61 61
-0.099563 0.074293 0.099998 104 104 104
-0.099563 0.100026 0.074972 108 108 108
-0.124625 0.100026 0.149998 58 58 58
-0.099563 0.074452 0.149998 98 98 98
-0.099563 0.074577 0.199998 97 97 97
-0.099563 0.100026 0.225163 162 162 162
-0.099563 0.100026 0.784306 118 118 118
-0.099563 0.150026 -0.844146 123 123 123
-0.124716 0.150026 -0.150002 114 114 114
-0.099563 0.124288 -0.150002 129 129 129
-0.099563 0.150026 -0.175306 142 142 142
-0.099563 0.124471 -0.100002 123 123 123
-0.099563 0.124728 -0.050002 117 117 117
-0.099563 0.124841 -0.000002 112 112 112
-0.099563 0.125000 0.049998 108 108 108
-0.099563 0.150026 0.225151 114 114 114
-0.099563 0.150026 0.790563 107 107 107
-0.099563 0.175482 -0.850002 124 124 124
-0.099563 0.200026 -0.854411 124 124 124
-0.099563 0.174722 -0.200002 142 142 142
-0.099563 0.200026 -0.225081 214 214 214
-0.099563 0.175208 0.199998 37 37 37
-0.099563 0.200026 0.175180 37 37 37
-0.099563 0.200026 0.797448 101 101 101
-0.099563 0.250026 -0.856316 122 122 122
-0.099563 0.250026 -0.225087 255 255 255
-0.099563 0.225136 0.149998 75 75 75
-0.099563 0.250026 0.125108 75 75 75
-0.099563 0.224579 0.799998 101 101 101
-0.099563 0.250026 0.802963 110 110 110
-0.099563 0.300026 -0.864005 119 119 119
-0.124893 0.300026 -0.250002 250 250 250
-0.099563 0.274941 -0.250002 255 255 255
-0.099563 0.300026 -0.275625 144 144 144
-0.099563 0.275094 0.099998 169 169 169
-0.099563 0.300026 0.075066 169 169 169
-0.099563 0.300026 0.807386 111 111 111
-0.099563 0.350026 -0.857547 120 120 120
-0.124812 0.350026 -0.250002 202 202 202
-0.099563 0.350026 -0.275705 121 121 121
-0.099563 0.325053 0.049998 169 169 169
-0.099563 0.350026 0.025025 169 169 169
-0.099563 0.350026 0.814550 109 109 109
-0.146279 0.400026 -0.850002 100 100 100
-0.099563 0.367506 -0.850002 120 120 120
-0.099563 0.400026 -0.836549 103 103 103
-0.099563 0.375352 -0.250002 27 27 27
-0.099563 0.400026 -0.225328 27 27 27
-0.099563 0.375046 -0.000002 163 163 163
-0.099563 0.400026 -0.024982 163 163 163
-0.099563 0.400026 0.823653 107 107 107
-0.099563 0.450026 -0.823287 89 89 89
-0.099563 0.425615 -0.200002 22 22 22
-0.099563 0.425320 -0.150002 41 41 41
-0.099563 0.425226 -0.100002 66 66 66
-0.099563 0.425271 -0.050002 106 106 106
-0.099563 0.450026 0.821002 106 106 106
-0.099563 0.490683 -0.800002 77 77 77
-0.099563 0.500026 -0.792577 77 77 77
-0.099563 0.500026 0.803959 81 81 81
-0.099563 0.550026 -0.755936 72 72 72
-0.113706 0.550026 0.699998 11 11 11
-0.099563 0.536042 0.699998 11 11 11
-0.099563 0.550026 0.684976 11 11 11
-0.131916 0.550026 0.749998 89 89 89
-0.099563 0.517892 0.749998 69 69 69
-0.147735 0.550026 0.799998 98 98 98
-0.099563 0.501530 0.799998 81 81 81
-0.145229 0.600026 -0.750002 44 44 44
-0.099563 0.558253 -0.750002 72 72 72
-0.099563 0.600026 -0.729898 63 63 63
-0.101692 0.600026 0.599998 72 72 72
-0.099563 0.597682 0.599998 72 72 72
-0.099563 0.600026 0.592157 72 72 72
-0.114903 0.600026 0.649998 72 72 72
-0.099563 0.582471 0.649998 72 72 72
-0.128617 0.600026 0.699998 70 70 70
-0.142758 0.600026 0.749998 68 68 68
-0.099563 0.650026 -0.729345 62 62 62
-0.099563 0.634073 0.549998 93 93 93
-0.099563 0.650026 0.531046 93 93 93
-0.099563 0.679989 -0.700002 45 45 45
-0.099563 0.700026 -0.681921 45 45 45
-0.099563 0.677326 0.499998 100 100 100
-0.099563 0.700026 0.469750 111 111 111
-0.099563 0.729284 -0.650002 44 44 44
-0.099563 0.750026 -0.630859 44 44 44
-0.141741 0.750026 0.399998 113 113 113
-0.099563 0.744624 0.399998 112 112 112
-0.099563 0.750026 0.393511 112 112 112
-0.099563 0.713374 0.449998 111 111 111
-0.099563 0.785074 -0.600002 34 34 34
-0.099563 0.800026 -0.585889 34 34 34
-0.099563 0.790654 0.349998 110 110 110
-0.099563 0.800026 0.337274 110 110 110
-0.099563 0.824426 -0.550002 26 26 26
-0.099563 0.850026 -0.511649 21 21 21
-0.099563 0.829081 0.299998 97 97 97
-0.099563 0.850026 0.272667 102 102 102
-0.121033 0.900026 -0.500002 25 25 25
-0.099563 0.900026 -0.518843 25 25 25
-0.099563 0.889930 0.199998 77 77 77
-0.099563 0.900026 0.184085 77 77 77
-0.142835 0.900026 0.249998 82 82 82
-0.099563 0.858995 0.249998 102 102 102
-0.099563 0.904765 -0.500002 25 25 25
-0.099563 0.939877 -0.450002 29 29 29
-0.140944 0.950026 -0.400002 31 31 31
-0.099563 0.950026 -0.438083 29 29 29
-0.147940 0.950026 0.149998 98 98 98
-0.099563 0.950026 0.187640 88 88 88
-0.099563 0.956550 -0.400002 31 31 31
-0.099563 0.969529 -0.350002 44 44 44
-0.099563 0.992873 -0.300002 34 34 34
-0.099563 0.990310 -0.250002 44 44 44
-0.099563 0.995985 -0.200002 51 51 51
-0.099563 0.988527 -0.150002 58 58 58
-0.099563 0.987403 -0.100002 66 66 66
-0.099563 0.990242 -0.050002 69 69 69
-0.099563 0.978417 -0.000002 74 74 74
-0.099563 0.976272 0.049998 83 83 83
-0.099563 0.970687 0.099998 71 71 71
-0.099563 0.961132 0.149998 85 85 85
-0.049563 -1.023904 0.149998 59 59 59
-0.049563 -0.999974 0.127797 59 59 59
-0.049563 -1.028004 0.199998 142 142 142
-0.049563 -1.031933 0.249998 137 137 137
-0.049563 -1.028606 0.299998 138 138 138
-0.049563 -0.999974 0.346323 123 123 123
-0.076779 -0.999974 0.449998 132 132 132
-0.049563 -1.010950 0.499998 132 132 132
-0.049563 -0.999974 0.468146 141 141 141
-0.049563 -1.021269 0.549998 108 108 108
-0.049563 -1.017786 0.599998 94 94 94
-0.063437 -0.999974 0.649998 88 88 88
-0.049563 -1.003253 0.649998 88 88 88
-0.049563 -0.999974 0.655501 88 88 88
-0.049563 -0.970048 0.149998 146 146 146
-0.049563 -0.949974 0.169847 146 146 146
-0.049563 -0.996569 0.349998 123 123 123
-0.049563 -0.996084 0.399998 131 131 131
-0.049563 -0.997153 0.449998 141 141 141
-0.049563 -0.974715 0.699998 100 100 100
-0.049563 -0.950486 0.749998 106 106 106
-0.049563 -0.949974 0.751831 106 106 106
-0.082126 -0.899974 0.149998 132 132 132
-0.049563 -0.928280 0.149998 146 146 146
-0.049563 -0.899974 0.125421 147 147 147
-0.049563 -0.908080 0.699998 82 82 82
-0.049563 -0.899974 0.694061 82 82 82
-0.049563 -0.949439 0.749998 106 106 106
-0.049563 -0.869020 0.149998 151 151 151
-0.049563 -0.849974 0.169981 151 151 151
-0.049563 -0.878918 0.699998 82 82 82
-0.049563 -0.849974 0.710938 68 68 68
-0.049563 -0.807967 0.199998 138 138 138
-0.049563 -0.799974 0.207285 138 138 138
-0.053279 -0.799974 0.699998 95 95 95
-0.049563 -0.814174 0.699998 95 95 95
-0.049563 -0.799974 0.696554 95 95 95
-0.049563 -0.749974 0.209618 136 136 136
-0.049563 -0.797250 0.699998 95 95 95
-0.074679 -0.749974 0.749998 129 129 129
-0.049563 -0.749974 0.743667 24 24 24
-0.049563 -0.699974 0.208521 130 130 130
-0.049563 -0.734123 0.749998 24 24 24
-0.049563 -0.699974 0.769241 144 144 144
-0.049563 -0.649974 0.207372 136 136 136
-0.049563 -0.649974 0.775403 146 146 146
-0.049563 -0.599974 0.207348 145 145 145
-0.049563 -0.599974 0.782520 147 147 147
-0.049563 -0.549974 0.204145 147 147 147
-0.049563 -0.549974 0.781412 144 144 144
-0.049563 -0.499974 0.203968 144 144 144
-0.049563 -0.499974 0.775066 143 143 143
-0.049563 -0.474705 0.199998 127 127 127
-0.049563 -0.449974 0.172649 131 131 131
-0.049563 -0.449974 0.769298 141 141 141
-0.097918 -0.399974 -0.150002 98 98 98
-0.049563 -0.405803 -0.150002 117 117 117
-0.049563 -0.399974 -0.178586 120 120 120
-0.049563 -0.413097 -0.100002 122 122 122
-0.049563 -0.416585 -0.050002 124 124 124
-0.049563 -0.420475 -0.000002 132 132 132
-0.049563 -0.422794 0.049998 125 125 125
-0.049563 -0.427447 0.099998 138 138 138
-0.049563 -0.440756 0.149998 131 131 131
-0.049563 -0.399974 0.761301 146 146 146
-0.078607 -0.349974 -0.300002 122 122 122
-0.049563 -0.354172 -0.300002 133 133 133
-0.049563 -0.349974 -0.310480 133 133 133
-0.049563 -0.376442 -0.250002 124 124 124
-0.049563 -0.393249 -0.200002 120 120 120
-0.049563 -0.349974 0.759500 146 146 146
-0.073026 -0.299974 -0.400002 145 145 145
-0.049563 -0.305338 -0.400002 145 145 145
-0.049563 -0.299974 -0.409817 145 145 145
-0.049563 -0.331377 -0.350002 134 134 134
-0.082545 -0.299974 0.749998 137 137 137
-0.049563 -0.299974 0.756379 103 103 103
-0.049563 -0.276918 -0.450002 146 146 146
-0.049563 -0.249974 -0.493570 146 146 146
-0.049563 -0.249974 0.783305 117 117 117
-0.049563 -0.245268 -0.500002 146 146 146
-0.049563 -0.199974 -0.546432 150 150 150
-0.049563 -0.199974 0.784279 143 143 143
-0.049563 -0.159338 -0.600002 134 134 134
-0.049563 -0.149974 -0.611818 134 134 134
-0.049563 -0.196708 -0.550002 150 150 150
-0.073510 -0.149974 0.749998 112 112 112
-0.049563 -0.149974 0.766420 112 112 112
-0.049563 -0.122791 -0.650002 144 144 144
-0.049563 -0.099974 -0.689940 139 139 139
-0.056632 -0.099974 0.749998 113 113 113
-0.049563 -0.103939 0.749998 113 113 113
-0.049563 -0.099974 0.748908 113 113 113
-0.068450 -0.049974 -0.750002 146 146 146
-0.049563 -0.092076 -0.700002 139 139 139
-0.049563 -0.049974 -0.746964 146 146 146
-0.049563 -0.097096 0.749998 113 113 113
-0.049563 -0.049974 0.766449 112 112 112
-0.049563 -0.046483 -0.750002 146 146 146
-0.049563 0.000026 -0.780699 154 154 154
-0.049563 0.000026 0.775111 117 117 117
-0.049563 0.039278 -0.800002 149 149 149
-0.049563 0.050026 -0.807093 149 149 149
-0.049563 0.050026 0.780984 116 116 116
-0.049563 0.100026 -0.828021 150 150 150
-0.074748 0.100026 -0.000002 112 112 112
-0.049563 0.074120 -0.000002 151 151 151
-0.049563 0.100026 -0.025226 154 154 154
-0.074589 0.100026 0.049998 108 108 108
-0.049563 0.074283 0.049998 146 146 146
-0.049563 0.074379 0.099998 144 144 144
-0.049563 0.074614 0.149998 140 140 140
-0.049563 0.074723 0.199998 136 136 136
-0.049563 0.100026 0.225060 158 158 158
-0.049563 0.100026 0.782965 108 108 108
-0.084550 0.150026 -0.850002 123 123 123
-0.049563 0.134047 -0.850002 131 131 131
-0.049563 0.150026 -0.860259 131 131 131
-0.049563 0.124399 -0.150002 167 167 167
-0.049563 0.150026 -0.175157 178 178 178
-0.049563 0.124577 -0.100002 162 162 162
-0.049563 0.124802 -0.050002 154 154 154
-0.049563 0.150026 0.225120 113 113 113
-0.049563 0.150026 0.790823 106 106 106
-0.049563 0.200026 -0.869404 136 136 136
-0.074643 0.200026 -0.250002 214 214 214
-0.049563 0.174549 -0.250002 192 192 192
-0.049563 0.200026 -0.275702 177 177 177
-0.049563 0.174871 -0.200002 178 178 178
-0.049563 0.175277 0.199998 69 69 69
-0.049563 0.200026 0.175249 69 69 69
-0.049563 0.200026 0.799880 118 118 118
-0.049563 0.250026 -0.874897 135 135 135
-0.074648 0.250026 -0.250002 255 255 255
-0.049563 0.250026 -0.275546 168 168 168
-0.049563 0.225107 0.149998 132 132 132
-0.049563 0.250026 0.125080 132 132 132
-0.049563 0.201200 0.799998 118 118 118
-0.049563 0.250026 0.805579 114 114 114
-0.049563 0.300026 -0.876201 137 137 137
-0.049563 0.300026 -0.275475 150 150 150
-0.049563 0.275093 0.099998 172 172 172
-0.049563 0.300026 0.075065 172 172 172
-0.049563 0.300026 0.814363 115 115 115
-0.049563 0.350026 -0.880492 135 135 135
-0.049563 0.350026 -0.275593 119 119 119
-0.074590 0.350026 0.049998 169 169 169
-0.049563 0.350026 0.075596 151 151 151
-0.049563 0.350026 0.820217 111 111 111
-0.069470 0.400026 -0.850002 118 118 118
-0.049563 0.400026 -0.859465 118 118 118
-0.049563 0.375275 -0.250002 28 28 28
-0.049563 0.400026 -0.225251 28 28 28
-0.074584 0.400026 -0.000002 163 163 163
-0.049563 0.375597 0.049998 157 157 157
-0.049563 0.400026 0.025569 157 157 157
-0.049563 0.400026 0.822240 115 115 115
-0.049563 0.435270 -0.850002 109 109 109
-0.049563 0.450026 -0.845077 109 109 109
-0.049563 0.425541 -0.200002 22 22 22
-0.049563 0.425283 -0.150002 41 41 41
-0.049563 0.425197 -0.100002 66 66 66
-0.049563 0.425244 -0.050002 106 106 106
-0.049563 0.425657 -0.000002 134 134 134
-0.050891 0.450026 0.799998 75 75 75
-0.049563 0.448781 0.799998 75 75 75
-0.049563 0.450026 0.799338 75 75 75
-0.086841 0.500026 -0.800002 77 77 77
-0.049563 0.500026 -0.815455 78 78 78
-0.058296 0.500026 0.699998 10 10 10
-0.049563 0.490918 0.699998 10 10 10
-0.049563 0.500026 0.673834 10 10 10
-0.079286 0.500026 0.749998 69 69 69
-0.049563 0.469354 0.749998 67 67 67
-0.097696 0.500026 0.799998 81 81 81
-0.049563 0.524563 -0.800002 78 78 78
-0.067095 0.550026 -0.750002 65 65 65
-0.049563 0.547779 -0.750002 65 65 65
-0.049563 0.550026 -0.748501 65 65 65
-0.057258 0.550026 0.649998 51 51 51
-0.049563 0.527011 0.649998 51 51 51
-0.049563 0.550026 0.629669 51 51 51
-0.049563 0.600026 -0.732990 56 56 56
-0.049563 0.582246 0.599998 89 89 89
-0.049563 0.600026 0.579683 89 89 89
-0.049563 0.650026 -0.723569 55 55 55
-0.049563 0.625968 0.549998 104 104 104
-0.049563 0.650026 0.526481 104 104 104
-0.049563 0.685367 -0.700002 46 46 46
-0.049563 0.700026 -0.685740 46 46 46
-0.049563 0.672448 0.499998 110 110 110
-0.049563 0.700026 0.465961 113 113 113
-0.049563 0.729158 -0.650002 35 35 35
-0.049563 0.750026 -0.631077 35 35 35
-0.049563 0.746316 0.399998 115 115 115
-0.049563 0.750026 0.395925 115 115 115
-0.049563 0.709831 0.449998 113 113 113
-0.049563 0.793544 -0.600002 29 29 29
-0.049563 0.800026 -0.592153 29 29 29
-0.049563 0.792419 0.349998 112 112 112
-0.049563 0.800026 0.340137 112 112 112
-0.049563 0.829921 -0.550002 24 24 24
-0.049563 0.850026 -0.531504 24 24 24
-0.049563 0.831068 0.299998 101 101 101
-0.049563 0.850026 0.277042 101 101 101
-0.074870 0.900026 -0.500002 25 25 25
-0.049563 0.886907 -0.500002 22 22 22
-0.049563 0.900026 -0.484667 22 22 22
-0.049563 0.891219 0.199998 83 83 83
-0.049563 0.900026 0.185514 83 83 83
-0.049563 0.862741 0.249998 103 103 103
-0.077517 0.900026 0.299998 77 77 77
-0.049563 0.888196 0.299998 82 82 82
-0.049563 0.900026 0.295882 82 82 82
-0.049563 0.900026 0.322665 82 82 82
-0.049563 0.945342 -0.450002 30 30 30
-0.049563 0.950026 -0.446150 30 30 30
-0.085148 0.950026 0.199998 88 88 88
-0.049563 0.916277 0.199998 83 83 83
-0.049563 0.950026 0.226100 87 87 87
-0.049563 0.903228 0.299998 82 82 82
-0.049563 0.964135 -0.400002 33 33 33
-0.049563 0.971787 -0.350002 45 45 45
-0.049563 0.992059 -0.300002 36 36 36
-0.049563 0.989776 -0.250002 42 42 42
-0.049563 0.996858 -0.200002 52 52 52
-0.049563 0.992496 -0.150002 57 57 57
-0.049563 0.986042 -0.100002 67 67 67
-0.049563 0.990473 -0.050002 69 69 69
-0.049563 0.985267 -0.000002 78 78 78
-0.049563 0.981405 0.049998 88 88 88
-0.049563 0.975763 0.099998 90 90 90
-0.049563 0.966572 0.149998 76 76 76
-0.049563 0.958599 0.199998 80 80 80
0.000437 -1.024181 0.149998 60 60 60
0.000437 -0.999974 0.127565 60 60 60
0.000437 -1.030199 0.199998 160 160 160
0.000437 -1.030358 0.249998 158 158 158
0.000437 -1.028893 0.299998 159 159 159
-0.044517 -0.999974 0.349998 123 123 123
0.000437 -1.028647 0.349998 160 160 160
0.000437 -0.999974 0.395726 146 146 146
0.000437 -1.013791 0.499998 147 147 147
0.000437 -0.999974 0.464490 155 155 155
0.000437 -1.025039 0.549998 132 132 132
0.000437 -1.019117 0.599998 107 107 107
0.000437 -1.005715 0.649998 95 95 95
0.000437 -0.999974 0.659702 95 95 95
0.000437 -0.969708 0.149998 162 162 162
0.000437 -0.949974 0.169647 162 162 162
0.000437 -0.996597 0.399998 146 146 146
0.000437 -0.997334 0.449998 155 155 155
-0.024875 -0.949974 0.649998 81 81 81
0.000437 -0.990852 0.649998 95 95 95
0.000437 -0.949974 0.624389 62 62 62
0.000437 -0.967844 0.699998 96 96 96
0.000437 -0.949974 0.682992 96 96 96
-0.045371 -0.949974 0.749998 106 106 106
0.000437 -0.949974 0.735705 109 109 109
0.000437 -0.928620 0.149998 162 162 162
0.000437 -0.899974 0.126114 158 158 158
0.000437 -0.930000 0.649998 50 50 50
0.000437 -0.909597 0.699998 78 78 78
0.000437 -0.899974 0.696221 78 78 78
0.000437 -0.868369 0.149998 164 164 164
0.000437 -0.849974 0.169169 164 164 164
-0.017957 -0.849974 0.699998 122 122 122
0.000437 -0.849974 0.694559 122 122 122
0.000437 -0.806903 0.199998 152 152 152
0.000437 -0.799974 0.206417 152 152 152
0.000437 -0.799974 0.699839 104 104 104
0.000437 -0.749974 0.209945 153 153 153
0.000437 -0.799848 0.699998 104 104 104
-0.014962 -0.749974 0.749998 60 60 60
0.000437 -0.753563 0.749998 60 60 60
0.000437 -0.749974 0.753151 60 60 60
0.000437 -0.699974 0.208872 153 153 153
0.000437 -0.699974 0.774416 144 144 144
0.000437 -0.649974 0.207792 159 159 159
0.000437 -0.649974 0.778428 144 144 144
0.000437 -0.599974 0.207705 168 168 168
0.000437 -0.599974 0.782488 148 148 148
0.000437 -0.549974 0.204561 170 170 170
0.000437 -0.549974 0.780299 141 141 141
0.000437 -0.499974 0.202934 164 164 164
0.000437 -0.499974 0.774910 144 144 144
0.000437 -0.467787 0.199998 150 150 150
0.000437 -0.449974 0.180598 150 150 150
0.000437 -0.449974 0.767887 141 141 141
0.000437 -0.406973 -0.150002 131 131 131
0.000437 -0.399974 -0.185468 134 134 134
0.000437 -0.413259 -0.100002 137 137 137
0.000437 -0.418347 -0.050002 139 139 139
0.000437 -0.417419 -0.000002 135 135 135
0.000437 -0.422183 0.049998 132 132 132
0.000437 -0.432527 0.099998 156 156 156
0.000437 -0.442897 0.149998 149 149 149
0.000437 -0.399974 0.763301 141 141 141
0.000437 -0.359553 -0.300002 137 137 137
0.000437 -0.349974 -0.317461 137 137 137
0.000437 -0.381607 -0.250002 132 132 132
0.000437 -0.395388 -0.200002 134 134 134
0.000437 -0.349974 0.763414 140 140 140
0.000437 -0.314779 -0.400002 146 146 146
0.000437 -0.299974 -0.419786 146 146 146
0.000437 -0.331442 -0.350002 138 138 138
0.000437 -0.299974 0.767039 47 47 47
0.000437 -0.275336 -0.450002 149 149 149
0.000437 -0.249974 -0.498940 149 149 149
0.000437 -0.249974 0.786600 120 120 120
-0.029678 -0.199974 -0.550002 150 150 150
0.000437 -0.204819 -0.550002 152 152 152
0.000437 -0.199974 -0.555763 152 152 152
0.000437 -0.249147 -0.500002 149 149 149
0.000437 -0.199974 0.783279 136 136 136
0.000437 -0.161854 -0.600002 140 140 140
0.000437 -0.149974 -0.615031 140 140 140
-0.023580 -0.149974 0.749998 115 115 115
0.000437 -0.165518 0.749998 115 115 115
0.000437 -0.149974 0.736678 115 115 115
0.000437 -0.129125 -0.650002 137 137 137
0.000437 -0.099974 -0.688563 141 141 141
0.000437 -0.099974 0.749165 114 114 114
0.000437 -0.089843 -0.700002 141 141 141
0.000437 -0.049974 -0.743443 151 151 151
0.000437 -0.097372 0.749998 114 114 114
0.000437 -0.049974 0.762666 115 115 115
0.000437 -0.042738 -0.750002 151 151 151
0.000437 0.000026 -0.788191 155 155 155
0.000437 0.000026 0.773792 120 120 120
0.000437 0.022486 -0.800002 155 155 155
0.000437 0.050026 -0.812870 154 154 154
0.000437 0.050026 0.777201 122 122 122
0.000437 0.100026 -0.829029 155 155 155
0.000437 0.074189 -0.000002 156 156 156
0.000437 0.100026 -0.025174 160 160 160
0.000437 0.074387 0.049998 152 152 152
0.000437 0.074448 0.099998 151 151 151
0.000437 0.074698 0.149998 151 151 151
0.000437 0.074823 0.199998 151 151 151
0.000437 0.100026 0.225092 158 158 158
0.000437 0.100026 0.783113 122 122 122
